# .PCD v.7 - Point Cloud Data file format
VERSION .7
FIELDS x y z
SIZE 4 4 4
TYPE F F F
COUNT 1 1 1
WIDTH 1058
HEIGHT 1
DATA ascii
-0.5	0.34599357783349405	-1.2990052196571367
-0.5	-0.14438576127276181	-0.6187109114411056
-0.5	0.15407997106626808	-1.1383419474875867
-0.5	0.11869678474111667	-0.5096217213186149
-0.5	0.08393154984243378	-0.6338301816533017
-0.5	0.35849594914259575	-0.6128087031729433
-0.5	0.06968496428786117	-1.0520877880301231
-0.5	0.05095615616388406	-0.8014373574941699
-0.5	-0.10667784049264203	-0.5189788634939423
-0.5	0.3220779128551797	-0.8796763941985232
-0.5	0.45588307153872465	-0.6993442663890322
-0.5	0.3169116128019204	-0.5166519468930053
-0.5	-0.43596660439411805	-0.5033108295020213
-0.5	0.45329031684621646	-1.4118410403847834
-0.5	0.22815713566359758	-0.7763960289839147
-0.5	0.29820873255011093	-1.1421211598574055
-0.49999999999999994	0.4961921249870373	-1.1366095481353473
-0.5	0.4926752752733961	-1.0214431137988402
-0.35195776330090217	-0.5	-1.3018929808630837
0.35457102449067945	-0.5	-1.4169213642011929
0.010027227197194816	-0.5	-1.1652157189284147
-0.3000113003980726	-0.5	-1.1580682220028893
-0.08055498049712279	-0.5	-1.014800587539367
-0.3944286591388091	-0.5	-0.8732268998878308
-0.03438657813671836	-0.5	-1.3655802421469858
-0.27554551598081434	-0.5	-0.7861999131146058
-0.49079002111429754	-0.49999999999999994	-1.357061459341654
-0.27133399917759504	-0.5	-0.9722585799847099
0.03577199991035805	-0.5	-1.278122532588651
-0.4985007114682183	-0.5	-1.1828646895764556
-0.47300491313969895	-0.5	-0.6412535591266009
-0.1133003817806228	-0.5	-1.1635086412912563
-0.17913773915818154	-0.5	-1.0792696752698603
-0.47397905679203056	-0.5	-0.9622303088324067
0.284061691243927	-0.5	-1.3296657488432537
-0.28336725706550664	-0.49999999999999994	-1.403291292048008
0.08336244071113671	-0.5	-1.4419145850458501
0.11440311093354527	-0.5	-1.210914355654898
-0.14982440895010038	-0.5	-0.850232363800341
0.2116965808915857	-0.5	-1.4987414665742327
-0.21720380687695073	-0.5	-1.2485580009633208
-0.372876894204758	-0.5	-0.7196236334485686
-0.367126381060251	-0.5	-1.0046028054015426
-0.45739651905689827	-0.5	-1.0907447482745538
-0.0999664522564813	-0.5	-1.4528895063125893
0.02805848904527683	-0.5	-1.0571355387824253
0.44369222935189634	-0.5	-1.4649598967966557
-0.12976884602128524	-0.5	-1.3063171716098996
0.14423359269335911	-0.5	-1.332056544082643
-0.4664022492502974	-0.5	-1.4685836844504048
-0.22192394029670656	-0.5	-1.4938645809148485
-0.48291886681175356	-0.5	-0.7814220386698891
-0.35818988449413924	-0.5	-1.4889838090107697
-0.0033515406274594005	-0.5	-1.4991440619150775
-0.15961321672489448	-0.5	-0.9507895422563253
-0.39801419913265546	-0.5	-1.1845909521018405
-0.486556407741346	-0.5	-0.5412679952836839
0.2648951225895635	-0.5	-0.8903372593569979
0.46904994669447253	-0.5	-1.3652985918830873
0.3414049604342623	-0.5	-0.9752974094590041
0.30878794433480505	-0.5	-0.5148211186191196
0.36281242379258827	-0.5	-1.2845362948248098
0.46297166155467695	-0.5	-1.0823392397112264
-0.23346064562223423	-0.5	-0.607625348047844
0.2692138248236271	-0.5	-0.6725065105616412
-0.3320950852534231	-0.49999999999999994	-0.5776637457392254
0.4825659784367299	-0.5	-0.8666271247085899
0.4313409101680483	-0.5	-0.7480329169404443
0.051682574912002885	-0.5	-0.8902349252544555
0.10033242956608268	-0.5	-0.7717552427632006
0.1622885307157409	-0.5	-1.0045712100862152
0.49949270293605186	-0.5	-0.5338195394101767
-0.028890324808586443	-0.5	-0.8196893270519259
-0.12327198348299373	-0.5	-0.6122649178616038
-0.12480027409148055	-0.5	-0.8637366650159167
0.2284439923355257	-0.5	-0.7912142829560727
0.07485999566538118	-0.5	-0.5349488066501011
0.17277244579716067	-0.5	-1.160247788850242
0.3828817245365158	-0.5	-0.6365963706196942
0.009367453423398953	-0.5	-0.703986869025524
0.26596607172800824	-0.5	-1.2065239107376888
-0.25848325034177255	-0.5	-0.7125067896452388
-0.026888221933985018	-0.5	-0.5197971296231516
0.046194568829804786	-0.5	-0.9904002135302679
0.11400714207975682	-0.5	-0.660615653578951
0.37552458547998224	-0.5	-1.1802560340021417
0.38179106927463036	-0.5	-0.8468765369753459
0.4908284710124383	-0.5	-1.4695028501843097
0.2875085092184104	-0.5	-1.0942678249176796
-0.1559585619585586	-0.5	-0.7243242728748108
0.49705587589386657	-0.5	-1.2317345612552224
-0.4390387187372468	-0.5	-0.5502909315578975
0.20260679782288182	-0.5	-0.550440261869118
0.484010579280753	-0.5	-0.6566734349611828
0.4507288381412541	-0.5	-0.9675454961537
-0.20542221188902565	-0.5	-0.5083680850353307
0.49470826590220096	0.5	-1.265179923573509
0.08977841792933153	0.5	-1.3932290859489702
0.30669752305305664	0.5	-1.3266266227402763
0.4802023634677124	0.5	-0.78557634878015
-0.22052277255505226	0.5	-1.4071314087124183
0.15387696221513103	0.5	-0.8520861360736507
0.47508262365694076	0.5	-1.3826760085206558
0.18853534507444247	0.5	-1.4664806867270048
0.38247149373475964	0.5	-1.2552147078094482
0.30497367929308505	0.5	-0.7041716872616958
0.4845391468114545	0.5	-0.9186241033751379
0.09431539753079313	0.5	-1.2743348900594453
-0.03340363303389346	0.5	-1.4178753886490087
-0.11637635654201783	0.5	-1.3558806723813297
0.3611763952308011	0.49999999999999994	-0.8447857764723733
0.29937368196318687	0.5	-0.9578591196725155
0.23278916919328835	0.49999999999999994	-0.7809051532619645
0.21213412368315365	0.5	-1.1008859022426687
0.01726027847079492	0.5	-0.9874811423224994
0.35535994354662015	0.5	-1.0486882888518856
0.3458823677375916	0.5	-1.490759305485835
0.4635903941404972	0.5	-0.6788586679307351
-0.11066118876925687	0.5	-1.1974834098518803
0.34659592172695053	0.5	-1.1519966517244267
-0.32430577437317376	0.5	-1.4505674271980775
-0.31231209499054435	0.5	-1.3344424487716497
0.46225925250325045	0.5	-1.0174598099822545
0.0013783945168024392	0.5	-1.319772437627981
0.4814981154448843	0.5	-1.4953920880865
0.14329736367895118	0.5	-0.9578851839712241
0.025161071075094132	0.5	-1.1851027131964607
0.4847927282831315	0.49999999999999994	-0.5587184219539215
0.18600801113187393	0.5	-1.2090355354058722
0.11016183925686396	0.5	-1.1084229704798625
0.47640024968076244	0.5	-1.1252044332540525
-0.18363944661116086	0.5	-1.271614997344574
-0.471555735220893	0.5	-1.484175386037131
-0.10821163059937666	0.5	-1.497824603048695
-0.07456024745192705	0.5	-1.097932092765605
0.2044092936773058	0.5	-1.3484126637930542
-0.035143080251845094	0.5	-1.02443650511418
-0.40568413017913685	0.5	-1.289512161625601
-0.4976222200263606	0.5	-0.5840028270939224
-0.24498709397554586	0.5	-1.0647933641933758
0.050490651998239336	0.5	-0.9195388060086085
0.05364847087361238	0.5	-0.6682371971602529
0.1250907376826852	0.5	-0.7391968104580391
-0.3470226212322889	0.5	-0.5401009974192782
-0.2831744598734236	0.5	-0.7984444813275333
-0.49449231912184144	0.5	-1.4861541255567474
-0.36861534760824244	0.5	-1.143249658111732
-0.017137941265799594	0.5	-0.5802478890655018
-0.3503962243648716	0.5	-0.6444276519644789
-0.1714797051616036	0.5	-1.1621103487803188
-0.16974628952805615	0.5	-0.5272273093387447
-0.1273411236173736	0.5	-0.8494454133005085
-0.20618997938364392	0.5	-0.9203584765202618
0.08511180671071808	0.5	-0.5156954176062608
0.3877244931080501	0.5	-0.5483299548548569
0.1961902925669753	0.5	-0.5827081316833099
-0.4677227287656014	0.5	-0.8243021664947399
0.03888818908789851	0.5	-0.7928052050362596
-0.4485255802455318	0.5	-1.0189460905276784
0.24196087677096578	0.5	-0.6863491799562287
-0.3681059417365875	0.5	-0.879006513002826
-0.10578735214237012	0.5	-0.6674498012995465
-0.1913803220892557	0.5	-0.7349551601905558
-0.4547559362958433	0.5	-0.700298103683898
-0.05331699074134266	0.5	-0.9214358045013644
-0.3071669406734945	0.5	-1.2395587981686724
-0.432011927188911	0.5	-1.4024671074004644
-0.24872616227127584	0.5	-0.6100178532572853
-0.4718495156116469	0.5	-1.17269797084247
-0.3269125014662432	0.5	-0.9931944291911213
0.14693215042467808	0.5	-0.843477055352022
-0.06806921657488241	0.5	-0.7630475900273506
-0.13092958052861037	0.5	-1.0703345564489903
-0.4905077345397497	0.5	-0.9220328243342393
0.4802935155613136	0.5	-0.5101409386104151
0.35447124769859484	0.5	-0.644084288563402
-1.5	0.48563689680434763	-0.22672347956217956
-1.5	0.06673335879366557	-0.3235067044701365
-1.5	-0.37335262384057544	-0.430656168926993
-1.5	0.228544870898172	-0.45358166212433393
-1.5	0.25257318659198136	-0.026659076042655716
-1.5000000000000002	0.3185637186095296	-0.18384297809948047
-1.5	-0.26190558428337707	-0.2711520599946249
-1.5	0.1567103902006444	-0.07786855473246157
-1.5	0.35971121713847143	-0.2764157451322584
-1.5	0.3342728111372235	0.23299819229644914
-1.5	-0.06365848168846155	-0.3799066100180861
-1.5000000000000002	0.4246798791014831	-0.4073773580219213
-1.5	0.1042755598892624	-0.4845834256052285
-1.5	0.3784271257371272	0.06132230727911659
-1.5	0.03675995632607379	-0.06152469250749082
-1.5	0.4151513207004626	0.15987813291411568
-1.5	-0.22997211515480853	-0.3810887698105666
-1.5	-0.09141386480183447	-0.09527945934388546
-1.4999999999999998	0.433859534418065	0.30760798841760173
-1.5	0.4793794268497099	0.4447933038001982
-1.5	0.44924672308367397	-0.0366257155052281
-1.5	-0.14842498133112958	-0.2951452818329777
-1.5	0.23497552171703054	0.09435364940507898
-1.5	0.04200265419294544	-0.1747866915930587
-1.5	-0.050930972773065325	-0.26161486496255637
-1.5	0.3455689966246055	-0.48659467426491865
-1.5	-0.14690592951512696	-0.18117640002480437
-1.5	0.11631194223009331	0.04104831174411358
-1.5	-0.010840712007750247	-0.46700116735794284
-1.5	0.1414810135560931	-0.23862275528655452
-1.5	-0.17993949299606582	-0.4715311524473137
-1.5	0.22496192540153404	-0.3114547410303573
-1.5	0.3218927716020976	-0.38746862836941387
-1.5	0.35263689544170385	-0.07866449024082744
-1.5	0.4997126777416766	-0.3380654690504288
-1.5	0.2310218767919251	0.2226725114145749
-1.5	0.4986276472237009	-0.47761546115383813
-1.5	0.49857086773314263	0.053710659197654345
-1.5	-0.29517295958685474	-0.4991589522668609
-1.5	0.34897097139601674	0.4274410581213933
-1.5	-0.4267438096246333	0.46039316585426826
-1.5	-0.30627038633375336	-0.26642640822244934
-1.5	0.10367877712147823	0.22961597139310685
-1.5	-0.29888769810043636	0.44853458905369703
-1.5	-0.48017790629909685	0.23470678716599414
-1.5	-0.3473916789577688	0.05956300287510574
-1.5	-0.13740572937742004	-0.015325390493574155
-1.5	-0.021223732906688553	0.1072211013438048
-1.5	0.23468258190119384	0.38956304303666567
-1.5	0.1416993621281119	0.4681192269599858
-1.5	-0.38353208800536376	0.36226080124808024
-1.5	-0.4626919508176791	-0.3817322957765632
-1.5	-0.48133733600976514	-0.029568248531137598
-1.5	-0.3677515017395323	0.18157740405788678
-1.5	0.00798555780566293	0.4438740652969182
-1.5	-0.19735328205397729	0.22058225957084354
-1.5	-0.4345035889882044	-0.26194032339662954
-1.5	-0.31324553271781685	-0.13707335705099644
-1.5	-0.479123614349272	0.08574371006367834
-1.5	-0.15685153091730042	0.31351608191229485
-1.5	-0.15418607062852152	0.45454121245038126
-1.5	-0.09860932686791679	0.19606483391888896
-1.5	-0.24832919454460556	0.044147928780998436
-1.5	-0.025007354826679262	0.27764094288738106
-1.4999999999999998	-0.20063896269877032	-0.17367540860191613
-1.5	-0.27730805791147717	0.3147978151149601
-1.5	-0.48600399050062437	-0.1412239556392958
-1.5	0.4393774120265993	0.48896225562702067
-1.5	-0.480355918138746	0.33475026149953746
-1.5	0.23380795196745052	0.2810061941737785
-1.5	-0.1708320592289727	0.11761827213108433
-1.5	0.10370537089584289	0.11775197613805419
-1.5	0.12204644469992022	0.3559059095659385
-1.5	0.2639804684622488	0.4856846028947311
-1.5	-0.4972242623423192	-0.48815181139960717
-1.5	-0.0029161097183887244	0.0005289822229728606
-0.8155275266604158	-0.5	0.2001777641279209
-1.294596216175687	-0.5	0.13484207558746447
-1.4781906289237619	-0.5	-0.28030170727161197
-0.9734038895691275	-0.5	0.4284886363530782
-1.3787415024649798	-0.5	-0.24058303304552686
-1.4707444006668873	-0.5	-0.44871820595384604
-1.139054164897871	-0.5	0.21746963819269188
-1.1933467400151558	-0.5	0.3365470297380777
-1.0139813202613073	-0.5	0.21363119117985407
-0.8986393610342069	-0.5	0.3513637974101196
-1.0361529904626692	-0.5	0.347692831870236
-1.1901300501672154	-0.5	-0.08101964689632188
-1.2661360987700996	-0.5	0.25280901071145667
-1.311260498758208	-0.5	0.4005316515345472
-1.119434436606592	-0.5	0.014410603699237745
-1.476767520774198	-0.5	-0.001450755829694797
-0.8020471943380088	-0.5	0.3944325953942288
-1.2989400634508053	-0.5	-0.033987222910012785
-1.1809311427898994	-0.5	0.44942681611176993
-1.2198644152116545	-0.5	0.06051271579584966
-1.4815759839517466	-0.5	0.24647583533814715
-1.4510408809163882	-0.5	0.13794221179056285
-1.3616540727992692	-0.5	0.21218545390460636
-0.9286964457500922	-0.5	0.07145276235488049
-0.6864735400754459	-0.5	0.36924894405234165
-1.2429751565618996	-0.5	-0.2090995242697259
-1.3999787033628077	-0.5	0.4635511103566843
-0.5641901083097813	-0.5	0.45490246223459896
-1.4617577469455714	-0.5	-0.13658484618827338
-1.4954648465355684	-0.5	0.38152412068119435
-1.035425032232922	-0.5	0.08689665319112744
-1.3963485710693804	-0.5	-0.3777398622815993
-0.8488781702429951	-0.5	0.48589668812327946
-0.744717948617137	-0.5	0.28076771493150177
-0.7155453444629992	-0.5	0.4997418628765222
-1.3488972141578797	-0.5	-0.1253809608245553
-1.4016781502344509	-0.5	0.3132614987627021
-1.0683761773320768	-0.5	0.49793077144890685
-0.5362916482794565	-0.5	0.08125014947318723
-0.6524291211649766	-0.5	-0.17301941838190224
-0.7334655400562702	-0.5	-0.2628284314917424
-0.9152290049215988	-0.5	-0.3482435423834004
-0.5090456520577055	-0.5	0.38884026823678725
-0.8091337849522015	-0.5	0.1331099825171531
-0.8694787304134617	-0.5	-0.0014761769075193193
-0.7223453536149729	-0.5	0.06723237542485073
-0.6938359007356364	-0.5	-0.0607828697699372
-0.7936616324643919	-0.5	-0.07883836395765509
-0.7310539107774626	-0.5	-0.3645881022374784
-0.7076244738065678	-0.5	0.17729561222363596
-0.5358157103036602	-0.5	0.20006907418163442
-0.6341954435798307	-0.5	0.2860706331235518
-1.0684456750977964	-0.5	-0.23191629169794503
-0.545079752595825	-0.5	-0.4780428648731053
-1.0397807580431768	-0.5	-0.4172651366589436
-1.0448848743031234	-0.5	-0.053585192299183244
-1.2831200321843963	-0.5	-0.4803872215534313
-0.7943719186057373	-0.5	-0.4924594295419089
-1.4049772946886625	-0.5	-0.45961157930806984
-0.8781928400975664	-0.5	-0.13253826923286238
-0.5258190147428636	-0.5	-0.32399131160103556
-0.9117771098143967	-0.5	-0.48196762239359203
-0.5504827953572733	-0.5	-0.04055821903679713
-1.1891217828402463	-0.5	-0.37233868577242346
-0.5155720302959036	-0.5	-0.22110680227155666
-0.6314461703094905	-0.5	-0.39166166767919697
-1.2888362571576937	-0.5	-0.32189679234671087
-0.8416873822839257	-0.5	-0.2624712602856577
-1.1867384191700256	-0.5	-0.19102123144305896
-0.9629396443781475	-0.5	-0.25162289993502607
-0.693068319709458	-0.5	-0.49010402660782215
-1.1558904666371788	-0.5	-0.48392721988175547
-1.1624728128572452	-0.49900390028109615	-0.5
-1.1667166032373262	-0.22334917706805096	-0.5
-1.173909972854285	-0.010562975976709577	-0.5
-0.6370504530311758	-0.44362603878022444	-0.5
-0.9719565081722432	-0.03954573167508035	-0.5
-1.4592446539272423	-0.0035887550058011503	-0.5
-1.27615287852056	-0.2732727980830627	-0.5
-1.4474958387309882	0.10338006834759028	-0.5
-1.4259651328417073	-0.3462210820210814	-0.49999999999999994
-1.3163771379764053	0.2899971668435989	-0.5
-1.435900829570559	-0.11818243602473655	-0.5
-0.8864306366751824	-0.18671236262142443	-0.5
-1.3495495079077338	-0.18467854251179683	-0.5
-1.2797538267672155	-0.07165469515676313	-0.5
-0.8950595117339735	-0.4576776909936674	-0.5
-1.0196319625498063	-0.17574495460036121	-0.5
-1.086471991588083	0.07961899818254661	-0.5
-1.3296055231050825	-0.38722990190947576	-0.49999999999999994
-1.4525942132125798	0.2924556429782018	-0.5
-1.112627984840334	-0.375214918933496	-0.5
-0.8050555365313524	-0.36500175809637236	-0.5
-1.4093323837584297	-0.46504456026143864	-0.49999999999999994
-1.108820673887475	-0.1212083311710978	-0.5
-1.3063459347665727	0.13386776822293178	-0.5
-1.2313511623815145	-0.4235449538299343	-0.5
-0.7377538409909798	-0.44371940729217463	-0.5
-0.7002875275017684	-0.34847329379792724	-0.5
-1.2056770853521408	0.1258085879550772	-0.5
-1.4576193591107363	0.39376100979534046	-0.5
-1.0087451364527116	-0.4351516309712792	-0.5
-1.4799534836969848	-0.23099881132172023	-0.5
-0.9521546840427391	-0.32577276519211684	-0.5
-0.7640164286495718	-0.24507986042555843	-0.5
-1.329601991213499	0.03450457000066098	-0.5
-1.376183656872372	0.20869188528841134	-0.5
-1.043597673590375	-0.27484072883060906	-0.5
-1.4846941202609991	0.19719020097711315	-0.5
-0.7145921496698489	-0.06810242131169388	-0.5
-0.8122296337755778	0.38418063102711963	-0.5
-0.6555708055230078	-0.16122514705894597	-0.5
-1.0160662054211795	0.2816643237944014	-0.5
-0.9358296340135314	-0.056813818986265224	-0.5
-0.7386652965844742	0.2473688715556589	-0.5
-0.5789330896745186	0.43326399492782053	-0.5
-0.9329882213230416	0.20127980224870046	-0.5
-0.8110966727128045	0.04293028369264318	-0.5
-1.0343751797686398	0.4812061334424478	-0.5
-1.3134793300969239	0.48817486799623666	-0.5
-0.6365675973950303	0.24328305327052413	-0.5
-0.6524125004537153	0.03732603361921416	-0.5
-1.2825545658407245	0.32756592650393057	-0.5
-0.9895123858396017	0.11306707728616883	-0.5
-0.5270202161751534	-0.2609001287038847	-0.5
-0.8024973266248661	-0.15965922162886115	-0.49999999999999994
-0.5027346902158081	-0.11989101991365259	-0.5
-0.5154930066413099	0.04677740710013037	-0.5
-1.119721915176119	0.2602114852599281	-0.5
-1.155199081511213	0.4552399356750009	-0.5
-0.5796775509015184	0.1546005351209417	-0.5
-0.9389634565730642	0.34672370934478713	-0.5
-0.9228627096340372	0.45924068809442153	-0.5
-1.4303348881845726	0.4832915508985387	-0.5
-0.5450267761834939	-0.3656542657211135	-0.5
-0.732812225552219	0.13029073814334224	-0.5
-0.5962702286932455	-0.04837165966939716	-0.5
-0.8338640571723367	-0.056680628135098894	-0.5
-0.7087904766720217	0.3596284485651077	-0.5
-0.5055224419735677	0.30310821247582276	-0.5
-0.6692632353846416	-0.29659183507373443	-0.5
-0.8270654709389939	0.20022187842031003	-0.5
-0.7633470731465444	0.49074645855564114	-0.5
-1.0911439329978228	0.3724997155086279	-0.5
-1.2145334284451654	0.22194209287146613	-0.5
-1.0923308208539757	0.10737190270053912	-0.5
-1.3823609911306476	0.38983967267815123	-0.5
-1.3784125151442306	0.5	-0.3397749330654162
-1.1136988633590923	0.5	0.3047262141920848
-1.4520539522343208	0.5	-0.11624066561841229
-1.0017944822514908	0.5	0.04350650871378248
-1.4269524740228163	0.5	0.45338646672444904
-0.8628317489952939	0.5	0.4537136327316216
-0.8962940435129367	0.5	0.2316534587324489
-1.366417566508854	0.5	0.053617307871355116
-1.4951537739873195	0.5	-0.2394753427878511
-0.7826891211627871	0.5	0.3846477567851574
-1.0172589312676326	0.5	0.3393877416887533
-1.3732375958104304	0.5	-0.22564803675694492
-1.2382212844375142	0.5	0.0024142857878476642
-1.157672692005675	0.5	0.4183951821573463
-1.3795267467683554	0.5	0.3403330693096933
-1.3177689666351264	0.5	0.15444059134741017
-1.1450142303081907	0.5	0.16262803068375264
-0.9004005270514845	0.5	0.34934572524222407
-1.4706937597446257	0.5	0.13554254244847597
-1.1003533714596903	0.5	-0.05014179527696738
-1.4389482023143025	0.5	0.23232187159499862
-1.0312875871062424	0.5	0.14590783125595586
-1.3072530063430348	0.5	-0.12740434513163776
-1.2275058944535446	0.5	0.25073621140447666
-0.6715556932788077	0.5	0.4845714580741075
-0.9804306224042348	0.5	0.44097435793469764
-1.4640135901505433	0.49999999999999994	-0.46133318587414746
-1.2704388769476036	0.5	0.4879199177283545
-1.1585358346234873	0.5	-0.15011669481578707
-0.7076538240948442	0.5	0.31631441290527296
-1.265468037136725	0.5	-0.26247354478301665
-1.2597057106372387	0.5	0.37466158980367337
-1.480865596598014	0.49999999999999994	-0.002147747777187445
-1.137752395712981	0.5	0.061189461947378176
-0.6002246503651312	0.5	0.4014850077023441
-0.5627313679355824	0.5	0.49895039167249833
-1.4944198148707324	0.5	0.34002731878307935
-0.808144786181059	0.5	0.27947987794773077
-0.9142028120301988	0.5	0.1060684854468863
-1.49328712674551	0.49999999999999994	-0.3497935701570372
-1.0058245357852995	0.5	-0.08484967301226398
-0.7161227322249054	0.5	-0.37726178790527964
-1.3972012449010127	0.5	-0.41548427839973745
-0.894866094003758	0.5	-0.15554933235583832
-0.7013645725583361	0.5	-0.15324415728933874
-0.8242848564130946	0.5	-0.400778454319745
-0.5199118189074297	0.5	0.038055727425088004
-0.9660641252839421	0.5	-0.3010623624693142
-0.531465721783937	0.5	0.28914785094380313
-0.6050802364421977	0.5	0.3860559431730849
-0.7690846225263628	0.5	-0.07559364789480919
-0.6589561231579055	0.5	-0.0069758480135966305
-0.6454004036030088	0.5	-0.47169887190295856
-1.2814316549662355	0.5	-0.28366750848940425
-0.7036762934920495	0.5	0.14769184645883662
-0.55043342155444	0.5	-0.3457130184897198
-1.0697753758619462	0.5	-0.2481672310785069
-1.033471064843133	0.5	-0.49579686503475684
-0.8245991894442006	0.5	0.1423047042177801
-1.2136611067981677	0.5	-0.45367118572913345
-0.9447818802100164	0.5	-0.4248024895160545
-1.4917458959087895	0.5	-0.49473989526460427
-0.9172750093299527	0.5	0.08127488534951013
-0.861588761637774	0.5	-0.2734037196414143
-1.1076537309606316	0.5	-0.3465977602132181
-0.5938536336509814	0.5	0.15588726133441957
-0.7126744706130176	0.5	-0.2595508100446803
-0.5349471113904369	0.5	-0.07760121219215402
-0.5074408884875479	0.5	0.4315589500711672
-0.752129880756303	0.5	0.031883914310774975
-0.5309291456817927	0.49999999999999994	-0.479558088022851
-0.611251068903234	0.5	-0.22140780182753084
-0.5148564679875267	0.5	-0.18740196248342675
-0.7202363068311861	0.5	0.27765353091568834
-1.3110637372344218	0.5	-0.4805561442001124
-0.8741165676185559	0.5	-0.009864472596948087
-0.7523602861008433	0.49999999999999994	-0.48631543198339006
-1.169465421959146	0.5	-0.19937890542755862
-0.983519041784311	0.0728488794319978	0.5
-0.8457446977461244	0.344872345166103	0.5
-0.8501966717688877	0.1470714623219549	0.5
-0.6566961823913603	-0.2567398306686113	0.5
-0.9379947905229002	0.4470741506014624	0.5
-0.7616201067425635	-0.14615090677178033	0.5
-0.5056967286221098	0.21645171399361285	0.5
-1.0610703943004387	0.4108780318218517	0.5
-0.518330290472436	0.31650624031897634	0.5
-0.6621590997284775	0.263637283829533	0.5
-0.7503180071223644	0.1889685013272454	0.5
-0.7617491438148788	0.0003349282361759798	0.5
-0.5209838333506044	-0.2346172883330637	0.5
-0.6268564769053662	-0.09686330795218988	0.5
-0.8767990718935226	-0.02907380821097949	0.5
-0.500586842373704	0.4829460752968838	0.5
-0.704856390686305	0.40574612639346874	0.5
-0.6365909919187009	0.4914625326692298	0.5
-1.4798202432222411	0.4870896245993458	0.5
-1.3276173133613254	0.40535547318085763	0.5
-0.5548158444959889	0.07690100656388456	0.5
-1.1265825569779067	0.4962100397693252	0.5
-1.1998490740210095	0.272902496052821	0.5
-1.2081424135295311	0.4264185732359145	0.5
-0.6564416717757677	0.02334072822195654	0.5
-0.6478836497888198	0.13017853730103457	0.5
-0.5286400776979592	-0.03841124057697295	0.5
-0.5099147797059328	-0.4014025337112525	0.5
-0.8324886171961007	0.48365943956782853	0.5
-1.0846249917814133	0.24496797730251751	0.5
-0.6094682142981476	0.36733659859849377	0.5
-0.9433171310297866	0.29367599476239603	0.5
-1.1058004633438974	0.11016702699187153	0.5
-0.5855735508006294	-0.32825346083788537	0.5
-1.280613798867079	0.496488944398919	0.5
-0.9560668654813308	0.17604989721420983	0.5
-0.9411162186088557	-0.39567495204435754	0.5
-1.3880479854668015	-0.30872340001039184	0.49999999999999994
-1.4847575947297105	-0.24815039721919208	0.5
-1.45853032552276	0.13508784435041957	0.5
-1.1449554708195746	-0.27661557286077254	0.5
-1.1753268535497035	-0.38772680706300267	0.5
-1.0311780297367528	0.01391374167655443	0.5
-1.1522803143176246	0.13169776314841442	0.5
-0.8706955708999845	-0.13312609668764308	0.5
-0.7681048465312997	-0.25732769440087255	0.5
-1.307453312229602	0.10325435664453153	0.5
-0.9117108798277712	-0.2695182325584419	0.5
-1.086476982398081	-0.0740901366825355	0.5
-1.0382582684813768	-0.27928481109431047	0.5
-1.4020667221372087	0.23306554138129099	0.5
-0.976561074300322	-0.06985858386738542	0.5
-1.183107806056968	-0.1254370927632931	0.5
-1.18908842580522	0.00296711066698252	0.5
-1.2987588062234228	-0.4205240485693279	0.5
-1.3964925436792925	-0.4934531025447454	0.5
-1.4154095786114838	-0.17302416009583213	0.5
-0.6406476879677371	-0.37811527835474845	0.5
-1.092880217859447	-0.48993212600208325	0.5
-1.360274532602678	-0.006461356506836519	0.5
-1.4830258707251534	-0.3562568483279727	0.5
-1.26887945059616	-0.29347542768502577	0.5
-0.6622332814355101	-0.49012682555705844	0.5
-1.4618143995398951	0.35081045863345595	0.5
-1.2852557595552085	-0.18728226475639162	0.5
-0.9904730512323237	-0.4977097546954061	0.5
-0.837519991783264	-0.4654227148859832	0.5
-1.3333163284607927	0.3261685768126228	0.5
-1.0268338701718416	-0.16343059465258045	0.5
-1.2228348232013473	0.2146821237754644	0.5
-1.210261171818644	-0.48149432967248845	0.5
-0.7545330107784547	-0.3960744752228358	0.5
-1.473361613770246	-0.08433547092989135	0.5
-1.2845279739085926	-0.08593044430209776	0.5
-0.5429791337884612	-0.4623383618541729	0.5
-1.477072095128212	0.4717658274070379	0.5
-1.4726333021763802	0.01666174862104619	0.5
-0.5	-0.44368812103344835	-1.6209323509225189
-0.5	-0.008178661471880622	-2.245616250436279
-0.5	-0.47990291888569825	-2.0838446044406904
-0.5	-0.3036631159367925	-1.8038877953281824
-0.5	0.037558617745451314	-2.4641845388747825
-0.5	-0.2695427806631432	-1.9080655165811091
-0.5	0.3354940312782535	-2.4959552578603703
-0.5	-0.21179816513084693	-2.1196200369594207
-0.5000000000000001	0.16065963757361287	-2.474832138355883
-0.5	-0.2696929475280676	-2.247314692614125
-0.5	-0.09079188951282835	-1.9663500979873014
-0.5	-0.39974523549870944	-2.4957368827434117
-0.5	0.2693339754218991	-2.288620826353692
-0.5	0.15283180576023625	-2.2685070815718733
-0.5	-0.3901388186651479	-2.002936875314482
-0.5	0.3536207048985289	-2.379375719581304
-0.5	-0.2388793806932874	-2.472600872525121
-0.5	-0.1856987743001116	-2.3171324989844697
-0.5	-0.4159505200112139	-2.25045087297497
-0.5	-0.39578767294362904	-2.145152097539369
-0.5	-0.43910921557009974	-1.8704711611602998
-0.5	-0.3568110318001304	-2.3328013472166487
-0.5	-0.1315138795501112	-1.8743126535097443
-0.5	-0.46585093183302895	-2.3512131033711063
-0.5	-0.0815475283771533	-2.3334800685155046
-0.5	-0.10906393765793419	-2.101550481903379
-0.5	0.07941680043495694	-2.0936352919695658
-0.5	-0.4970868708860612	-1.9690395099671214
-0.5	0.24885382927388455	-2.4243880735525636
-0.5	0.44165686878727817	-2.497577440635652
-0.5	-0.12516846030117265	-2.4668925793925953
-0.5	-0.3171293856982227	-1.6985848938856556
-0.5	-0.306849298558163	-2.0661870146833072
-0.5	-0.49114573418875185	-1.7459052737571468
-0.5	-0.1219949721288961	-2.213988023562361
-0.5	0.061791587683462254	-2.3248695141662243
-0.5	-0.2064942994097918	-2.0011423536370327
-0.5	-0.011005741578691941	-2.045736699341663
-0.5	0.080303607976945	-2.1947748396957487
-0.5	-0.25997411453278485	-1.5516218874523027
-0.5	-0.25463244264513674	-1.6635825925436778
-0.5	0.44829409913593654	-1.5512950358864765
-0.5	0.1009193072891798	-1.9495105877502792
-0.5	0.3511467886627345	-2.0115739240134953
-0.5	-0.07180775478744786	-1.5320285206419262
-0.5	0.32042095764549017	-1.522523656006853
-0.5	0.2367008606660681	-1.9743695543173874
-0.5	0.35089386084800833	-2.3003678557598164
-0.5	0.359173974669758	-2.161414027141173
-0.5	0.2179434777227202	-1.739749094261199
-0.5	0.16032481455629877	-2.0796148633151694
-0.5	-0.08302521865642622	-1.8080368641836915
-0.5	0.05764425555755592	-1.5576017528907258
-0.5	0.39912147839039136	-1.8985153716561927
-0.5	0.10775363276551786	-1.7566310321406018
-0.5	-0.012053710869879608	-1.6592017678285031
-0.5	0.4396879999927421	-2.348973242226943
-0.5	-0.38348592167524287	-1.5414772666690275
-0.5	0.16536489923532435	-1.5644682710580233
-0.5	-0.18904733898681714	-1.8092935155386725
-0.5	0.19365416159804122	-1.8638934992564997
-0.5	0.22330632991139016	-2.1705600604844184
-0.5	0.39925761600161913	-1.7704614913174281
-0.5	-0.12957323920991015	-1.6875527317823271
-0.5	0.02396080524303207	-1.8426837947499313
-0.5	0.46090679682591407	-2.158213529632845
-0.5	0.4978437368676899	-2.0502927374643187
-0.5	0.29103929468252643	-1.6521926390138573
-0.5	0.2919118367074454	-1.8272416844815054
-0.5	0.47595360402520315	-2.4668829953411096
-0.5	0.4718475930373821	-1.6991955269758812
-0.5	0.01658039425332769	-2.0117060875886015
-0.5	0.4954414985453369	-1.8361684131834957
-0.5	0.494950090449371	-1.948571843114943
-0.5	-0.1630805188687866	-1.5792047858236775
-0.5	-0.07333205532980414	-1.9221357006300646
-0.10502475454863153	-0.5	-2.192396531449461
-0.3134951300810255	-0.5	-2.098064848023392
0.03151631488645791	-0.5	-2.445675079637907
0.2557743833205346	-0.5	-2.289481584354047
0.33366586734900816	-0.5	-2.3639024565741136
-0.17781189229068928	-0.5	-1.8680861530321247
-0.32721450721101364	-0.5	-1.799020400560299
-0.3572808303970736	-0.5	-2.315548090487835
0.4159852832649289	-0.5	-2.4891557495717023
-0.4701106862274944	-0.5	-1.6749990385609639
0.02762584955089964	-0.5	-2.190197140456347
-0.4226506619597199	-0.5	-1.8376883193323987
-0.26100171860496324	-0.5	-2.007445320504485
-0.274633900004139	-0.5	-2.4549596034165333
-0.4276569494321879	-0.5	-2.137780590972156
-0.39865059072166525	-0.5	-2.0209503297460243
-0.4774787140012678	-0.5	-2.4604457873493635
0.07671910563402029	-0.5	-2.3412378057761183
-0.18411062146376922	-0.5	-2.087037075511199
-0.16365537741025293	-0.5	-2.3607242583633936
-0.06970850798589673	-0.5	-2.0126822386981003
-0.24417627964011324	-0.5	-2.2602808068798144
0.18563617252142794	-0.5	-2.4486378591165128
-0.10040606488690819	-0.5	-2.4791398491413994
-0.477085133901478	-0.5	-2.3005829699660887
-0.30966634671908333	-0.5	-1.9129150828103345
-0.031487110630339835	-0.5	-2.2857707663855624
0.15456554363510833	-0.5	-2.2744204310556015
-0.497947485114722	-0.5	-2.0662244004760137
-0.16110164319490006	-0.5	-1.9708299143900208
0.2937288887798605	-0.5	-2.4802774357519506
-0.38429968553209265	-0.5	-2.498854052285977
0.10776689022247787	-0.5	-2.123847580297129
-0.4860769352072615	-0.5	-1.9241695828390357
-0.34901468809165226	-0.5	-1.6758376985133174
-0.006160002858548286	-0.5	-2.0934967331195433
-0.3230613276527373	-0.5	-2.198255712914315
-0.49120784732351064	-0.5	-1.5193493354638152
-0.2286440878114374	-0.5	-1.7776048905961468
-0.20617864882485737	-0.5	-1.67207087833878
-0.13370213345453608	-0.5	-1.536440114028474
0.22392888771988587	-0.5	-2.0757200183837314
0.3879143799666471	-0.5	-2.3698400107883346
0.1300318485446064	-0.5	-1.6075096263515516
-0.27930733247332795	-0.5	-1.5457894611411536
0.0029135882941553424	-0.5	-1.990870555329546
0.06587595756533747	-0.5	-1.729932139456602
0.29725791201386187	-0.5	-1.515179538527462
0.4811878068105927	-0.5	-2.311301963470754
0.3595467220479812	-0.5	-2.0675565834285665
0.0005960444722951097	-0.5	-1.551269120722153
0.3653359481464131	-0.5	-1.6259984286818567
0.12077016056481704	-0.5	-2.010008880557268
-0.4094368492003292	-0.5	-1.557180906293166
0.45619995804205604	-0.5	-1.8896130143968881
-0.1030648016247022	-0.5	-1.8171540229378198
0.2710039338865635	-0.5	-1.9423797352964935
0.1334073770298424	-0.5	-1.894750875737299
0.2126733368709225	-0.5	-1.7508876066320302
0.025457205891914247	-0.5	-1.887209707585726
0.4924361328662542	-0.5	-1.737322503181863
0.42941988768331185	-0.5	-1.5432006311258903
0.4234360228170856	-0.5	-2.201052518554654
-0.08300750823072034	-0.5	-1.6630630780467404
0.3297068875570651	-0.5	-1.748262040900089
0.31679950398069634	-0.5	-2.1952291844557816
-0.33131721829689526	-0.49999999999999994	-1.64185471164684
0.25902871688886253	-0.5	-1.6190837763366563
0.1138409247796992	-0.5	-1.5014051179689178
0.459751156826644	-0.5	-2.0690079622485635
0.48600365687660274	-0.5	-1.6310403038591974
0.187499925587252	-0.5	-2.179235590182554
-0.19979647443673973	-0.5	-1.7785282836089884
0.38014030520928255	-0.5	-1.963672504862647
0.4782060636892965	-0.5	-2.4584217602880942
-0.47570713978571855	0.15437307931359115	-2.5
-0.378395375890853	-0.10741957529332272	-2.4999999999999996
-0.23064149841434167	0.1756623372086623	-2.5
-0.4375177822530938	0.2704265827459986	-2.5
-0.045251701372562736	0.23388579642914598	-2.5
0.29016001619194565	0.4569995370111082	-2.5
-0.24920492450097131	0.4878399835017655	-2.5
0.33996172985862316	0.36657530742193667	-2.5
-0.48527487884917986	-0.31321174537770025	-2.5
-0.04623011050287784	0.1325378654097653	-2.5
-0.4047673488315879	-0.21910390303533187	-2.5000000000000004
-0.15487074635866896	-0.08616084222729628	-2.5
-0.48358675547453234	0.44817070310028273	-2.5
-0.48016877781978756	-0.43891246214831997	-2.5
-0.34849399629727373	0.4515068188615492	-2.5
-0.47940933110485007	-0.14686344128321369	-2.5
0.11158297859072489	0.3808183360453048	-2.5
-0.3024635750723347	-0.205402521271708	-2.5
-0.2966616523160852	0.2844842104724371	-2.5
-0.17779673015516614	0.01720196486479475	-2.5
-0.030859934719576043	0.000324709802029588	-2.5
-0.18160466845977083	0.38963886817624604	-2.5
-0.37997839191548644	0.06975405279940883	-2.5
-0.05034429252219497	0.4383312780361085	-2.5
-0.08171781080931506	0.32903764245856204	-2.5
-0.3633835733983328	0.1861809500726006	-2.5
0.48751929740515487	0.49667088267260917	-2.5
0.08008259750250524	0.236146082260281	-2.5
0.1330420300967756	0.13957254903713237	-2.5
0.27257323594592775	0.278661538624976	-2.5
0.11201514558159797	0.4809192924627784	-2.5
-0.3443238890976189	-0.319584089221312	-2.5000000000000004
-0.26960879543486715	0.05830118966741071	-2.5
-0.43778044044735576	-0.014400542096490321	-2.5
-0.2615265855431427	-0.04170022927260762	-2.5
0.21777692261475756	0.38299570190143983	-2.5
-0.1651000282287942	0.2594801187465773	-2.5
0.024861701201310732	0.3245291646188396	-2.5
0.051192723054979905	0.07493573662010633	-2.5
-0.1860285452839313	-0.18434071389785622	-2.5
-0.24321236024766413	-0.2834821155799594	-2.5
0.4751931198276901	-0.018867560430485097	-2.5
-0.43003380603242025	-0.45974711002954327	-2.5
0.165245437228695	-0.07848948787149929	-2.5
0.07477057319758917	-0.14616521107058555	-2.5
0.4861146968953942	-0.26389948379991746	-2.5
0.43940337482916414	-0.1528076417046288	-2.5
0.4742296545510424	0.45730996055273954	-2.5
0.4037892807132629	-0.48807955288726046	-2.5
-0.14097157045081968	-0.14431728230758875	-2.5
0.030971947933856284	-0.0072274599533300316	-2.5
0.2249920100991294	0.10474420693459942	-2.5
0.3626302315540866	-0.23241299449610298	-2.5
0.32541742270240737	-0.1159556669058226	-2.5
0.23527381788413512	-0.4872805893280763	-2.5
0.2982087259570936	0.01941253316593841	-2.5
-0.13817523755810013	-0.46041799692213203	-2.5
0.21937283755450288	-0.16501897380372	-2.5
-0.022219641285912473	-0.3956811237267531	-2.5
-0.13668642474074066	-0.2807477300830381	-2.5
0.3508039092600457	-0.3748884485279318	-2.5
0.42747565458590064	0.3585092886278278	-2.5000000000000004
-0.04947178626189516	-0.229364881874796	-2.5000000000000004
0.18224291853627073	-0.2631040739315222	-2.5
0.07421582437632779	-0.4936126726844926	-2.5
-0.24945456077999761	-0.4612682759970117	-2.5
0.28821766902658164	0.24222336094927976	-2.5
0.10295336245139963	-0.3849094179387733	-2.5
0.40788865336850444	0.22281190513566906	-2.5
0.2509736377806937	-0.3462131589206796	-2.5
0.35201595187874357	0.10742326867680628	-2.5
-0.1907142247921665	-0.3739799774245205	-2.5000000000000004
0.12352379290069113	0.06736005737247378	-2.4999999999999996
-0.022564956042129714	-0.10503447348260819	-2.5
0.4599535342911656	-0.3707777063584866	-2.5
0.45648492755714387	0.11176215765061301	-2.5
-0.30553906381191065	-0.3619109018677795	-2.5
0.06756090967057882	-0.26133633512510396	-2.5
-0.040801284360386464	-0.49994014556744537	-2.5
0.5	0.3409986681654119	-2.3290732441343684
0.5	0.27405630773513956	-2.1920800166005425
0.5	0.22786521048399708	-1.7299754377175993
0.5	0.435444122431754	-2.0974105040350834
0.5	0.17606951400879478	-1.8194479648246535
0.5	0.06000011082226761	-1.8915721734333213
0.5	-0.007705766416630122	-1.787980572668891
0.5	0.46219678342968695	-2.3621463500816335
0.5	0.29230873547909497	-1.9655690348978583
0.5	0.44647874595885695	-1.7069315532853881
0.5	-0.10847447967753543	-1.7279981475044126
0.5	0.045659612694635004	-1.5076046587079242
0.5	0.27721363921910813	-2.0890501845796825
0.5	-0.2498099757987695	-1.7058320973573515
0.5	-0.3656609658689006	-1.5694320451788357
0.5	0.3308658871330832	-1.523332093196507
0.5	0.39914350476912763	-2.2331486803724943
0.5	0.14042604426196192	-1.9657374159475078
0.5	-0.12402516557001209	-1.5603448383506502
0.5	0.11395049231368601	-1.6171152447856612
0.5	0.38368981986904105	-1.890052598921224
0.5	0.09982267730970032	-2.067680119834918
0.5	-0.06351274544168431	-1.8958411292287725
0.5	0.22469910163893758	-1.565402941952877
0.5	0.023641960743099544	-1.999618925894349
0.5	-0.23391030238306387	-1.5714414851084677
0.49999999999999994	0.4934795726152928	-2.475085713495814
0.5	0.345955225774614	-1.6687642952933375
0.5	-0.03386597149976753	-1.6186057824976139
0.5	0.4842635972923013	-1.57357342120428
0.5	0.4874835476230628	-1.9438552463856984
0.49999999999999994	0.186858327446298	-2.1362827855516024
0.5	0.06586494772480023	-1.7171639049561171
0.5	0.33922130544986917	-1.8003472250598613
0.5	-0.1571514379329154	-1.8419989894062785
0.5	-0.44802152352430835	-1.5106789984133957
0.5	0.49886316770352557	-1.812588543839578
0.5	0.49611521153951926	-2.191884594309445
0.5	-0.3722890077672406	-2.468224008943398
0.5	0.368714938178885	-2.385791159081174
0.49999999999999994	0.11355053622740209	-2.167944661420749
0.5	-0.20343419415084718	-2.0385863368935553
0.5	-0.31623074728527756	-2.3544834597224074
0.5	-0.021935739620103534	-2.3190576150664075
0.5	-0.3800518514762268	-1.6373765816323134
0.5	0.12722409496975484	-2.411962849184645
0.5	-0.41982308312048533	-2.3104908355931872
0.5	-0.039578621606424766	-2.1665916663129052
0.5	-0.36231237031223396	-1.9100885185062628
0.5	-0.23383490555055475	-2.451374335921084
0.5	-0.42712545278287783	-1.7713074795209403
0.5	-0.2830424752603269	-1.7366233338930455
0.5	-0.06753209607715871	-2.041138320921553
0.5	-0.49732319340312336	-2.1303384214859586
0.5	0.2454520380847912	-2.367752565843829
0.5	-0.05412347942874385	-2.437323438397084
0.5	0.4106729431640366	-2.48609211877685
0.5	-0.14655565563575623	-2.387363204785643
0.5	-0.27662013357720716	-1.8436710176335647
0.5	-0.18863641946681486	-2.2405420454351
0.5	-0.1713022665894304	-1.8529295983986818
0.5	-0.4783108380725879	-1.6595862527861838
0.5	-0.34209475410756385	-2.173206419208632
0.5	-0.4084155606577127	-2.018737146978772
0.5	-0.4959469992147362	-1.8953408346060494
0.5	-0.4950199463300323	-2.4132714927700065
0.5	0.044337120964507586	-2.06991247305778
0.5	-0.08911859349873263	-1.9180078286606965
0.5	0.2206986038660108	-2.235251969285633
0.5	0.2158605821393943	-2.4652695781848943
0.5	-0.4928171614273458	-2.2360665221604803
0.5	-0.1478783232059866	-2.126374033420834
0.5	-0.30210923842418036	-1.9939636905186038
0.5	-0.48567673403396106	-1.522896505796733
0.5	0.04116794412795419	-2.473673742328708
0.5	0.08394713512595796	-2.3019743762058833
-0.05996635944788278	0.5	-2.3113210266408957
-0.37142037627846836	0.5	-2.4772409487042757
-0.46932245700331965	0.5	-2.119433237748023
-0.4059291318935881	0.49999999999999994	-2.001601487726896
0.13266664309137396	0.5	-2.3635018509203087
-0.40924715150575264	0.5	-1.8927482298507303
-0.30534590162326347	0.5	-2.314254789242291
-0.45470736250300314	0.5	-2.4154942623591857
-0.30626178403979254	0.5	-1.696508368140559
0.11431791455172732	0.5	-2.1227795962461884
-0.23036374167650034	0.5	-1.7821279681910955
-0.2959195076945489	0.5	-2.030470956156078
0.05441833300147328	0.5	-2.4475743688339984
-0.45813248155235126	0.5	-2.261322260466419
0.3317483865996468	0.5	-2.4247728327058633
-0.26082646552991684	0.5	-2.4453511761419846
-0.2315685383993663	0.5	-1.8955703110666933
-0.22941106356664928	0.5	-2.1396192095479067
-0.18436020435673164	0.5	-2.0098232241179526
-0.4789350666585226	0.5	-1.5243256845035915
-0.3670203083298671	0.5	-2.1030424338679574
-0.11556191648125902	0.5	-2.1687982034581332
-0.45535628322501454	0.5	-1.7159073671470348
0.06945831079161183	0.5	-2.214960862977234
-0.09222935230990711	0.5	-2.4646147517908354
-0.32037520793988017	0.5	-2.1966173587330484
0.22115287602142228	0.5	-2.241691602353426
0.2773769919161032	0.5	-2.3288211139534036
-0.15571434338802279	0.5	-2.261686786574181
-0.027058551432530303	0.5	-2.044504340023109
-0.10615122257582385	0.5	-1.9133376616689568
-0.3525441004155224	0.5	-1.8020177732871705
0.16647311165720835	0.5	-2.4955930718294366
0.4291176202994701	0.5	-2.466172024609364
-0.17077496343487852	0.5	-2.368014864746293
-0.4933310397032802	0.5	-1.8189156372425141
-0.39663628310121024	0.5	-1.6196535946576844
0.3981148462556954	0.5	-1.5641680151569683
0.2320297969934183	0.5	-1.581515300470395
0.4312568550011786	0.5	-2.2053127198892892
0.1649771744686177	0.5	-1.833047586583791
-0.23170525193828417	0.5	-1.5686670532328493
0.4769105527960521	0.5	-1.7936647288757541
0.1386295229348301	0.5	-2.0557484366509575
0.3319662065515087	0.49999999999999994	-2.3106345284575784
0.0976800712124099	0.5	-1.6025091261862647
0.3079610348938515	0.5	-1.9553378169650708
-0.1693251247009776	0.5	-1.786865963905346
0.3707652505392295	0.5	-2.108470149136807
0.015908505414330795	0.49999999999999994	-1.922878769061027
-0.08602600614945619	0.5	-1.519734272913164
0.32542208318615484	0.5	-1.6801099607030998
0.49892692071063427	0.5	-2.124560837660847
-0.27433257827085933	0.5	-1.7122362355246143
0.39653270082910874	0.5	-2.387481226868562
0.06472915695809778	0.5	-1.7653057019129448
0.26706403977516263	0.49999999999999994	-2.0900689602801825
-0.3499567478228355	0.5	-1.578929062858121
-0.05727230886011646	0.5	-1.692972386298553
0.38910998793815665	0.5	-1.8889036424513592
0.4794296534592384	0.5	-1.6784646881349332
0.47314809068124086	0.5	-2.0138679684721623
0.19189648906417217	0.5	-1.9472953943433775
0.24239516085957974	0.5	-2.2204334984708805
0.25489843915436083	0.5	-1.7642250550453349
-0.06728764634537579	0.5	-1.85646073761059
0.4973407606471262	0.5	-1.5425628193532164
0.3772143729083397	0.5	-1.7852873025074985
0.15528427556738672	0.5	-1.6891410396541406
-0.1482583877867696	0.5	-1.6510371809172166
0.03826843541325742	0.5	-1.505859420268093
0.49174073053527845	0.5	-1.9119016329561038
0.4981152577593684	0.5	-2.3978799494087033
0.4746465872183182	0.5	-2.296769603142124
-0.46264992445282493	0.5	-1.5266493442501388
0.29901321594705754	0.5	-1.5036969244065337
0.1623911176485844	0.5	-2.156326981644662
0.04332370332417743	0.5000000000000001	-2.0233100021062813
1.3104373147518877	-0.5	-0.8607852067229109
1.4475511630554891	-0.5	-0.7325827846062403
1.4712404699663337	-0.5	-0.5414684057573014
0.754616350969099	-0.5	-0.749233988734583
1.4958259625619346	-0.5	-0.9564738723871316
1.2778182785180197	-0.5	-0.5825882685390171
0.8410892595542346	-0.5	-0.509355280232667
1.3580574797279998	-0.49999999999999994	-0.9561944700464162
1.1452792337987643	-0.5	-0.9349249572700394
1.3621677405979582	-0.5	-1.3218597829931018
1.1178356884400598	-0.5	-0.6233203150313904
0.5996370271365153	-0.5	-0.5828056527675957
1.3790268555477698	-0.5	-1.1489024550134437
0.6709035971292137	-0.5	-0.6620879031251857
1.3365653407343585	-0.5	-0.6766385566712048
1.0455976466782422	-0.5	-0.7414105651736387
1.0506971473967064	-0.5	-0.8937178277650388
1.2377213855706073	-0.5	-1.1817245223163466
1.1453278368839621	-0.5	-1.0989837636877133
0.5178445908724768	-0.5	-0.5113133695726788
1.440935354038052	-0.5	-0.8592307172180778
1.2618913643028786	-0.5	-1.0509398214541923
1.1780877971742372	-0.5	-0.7109565535566187
0.861692756963069	-0.5	-0.6902720125600842
0.9431036800755823	-0.5	-0.9398087124084056
1.4717920073757615	-0.5000000000000001	-1.2483715908283548
0.9803779599227187	-0.5	-0.5981623977803671
0.8590737749354336	-0.5	-0.8580739436938584
1.429357000850128	-0.5	-1.043046757007251
1.4708608255351776	-0.5	-1.377207106755605
1.009561315753302	-0.5	-0.5010229487745506
0.684944349880004	-0.5	-0.5116691275669969
1.2030108940139546	-0.5	-0.8453702314093305
1.1639783142231366	-0.5	-0.5311425529644618
0.9743408816219541	-0.5	-0.8193134759747063
0.7933618809151812	-0.5	-0.6060865742951349
1.0494931299438934	-0.5	-1.0008386733715118
1.264874775106325	-0.5	-0.7620853133144363
1.3599235555351794	-0.5	-0.5110015334744157
0.7394898397998252	-0.5	-1.060999327774934
0.6031852534582295	-0.5	-1.1242565904046777
0.7167997487885184	-0.5	-1.4004042030132198
0.5642945818933459	-0.5	-0.6090717117904514
0.7889208466661046	-0.5	-1.3197133450244543
1.208900893173195	-0.5	-1.340431332633011
0.9512642400548664	-0.5	-1.024120284564096
1.1043530635030376	-0.5	-1.221843749771754
1.3405544744342677	-0.5	-1.345053807849545
0.7823991088533613	-0.5	-0.8993245833174384
0.8633166928562118	-0.49999999999999994	-1.4915947477592562
1.1232299593410473	-0.5	-1.4577771103877433
0.8211190112256967	-0.5	-1.1923848811427198
1.4629623038443966	-0.5	-1.4877446743634972
1.0616486209418101	-0.5	-1.1170635042038126
0.7517730941975653	-0.5	-0.7891957790610246
0.618210712127742	-0.5	-1.3656822308101308
0.899690953600001	-0.5	-1.3107649610261256
0.6119922603855723	-0.5	-0.8014288786782371
0.8729372794406702	-0.5	-0.9423598439923093
1.0035385503870218	-0.5	-1.4030696728215855
0.5524394073334513	-0.5	-0.9596331112745877
0.5313720884012423	-0.5	-1.488420483706022
0.6629043901308896	-0.49999999999999994	-1.4909998130262583
1.2907498525943715	-0.5	-1.487481355720211
0.558580154066135	-0.5	-0.7155518369084417
0.64478588217179	-0.5	-1.2662742991111113
0.7131999764266246	-0.5	-1.1777715486756735
0.5128518224666491	-0.5	-0.8613151522034608
0.6671684088244433	-0.5	-0.978122553870733
1.0153991240802271	-0.5	-1.3021605375545267
0.5132590832432568	-0.5	-0.5155389648502617
1.2117864204192277	-0.5	-1.2144437490255469
0.9724737537472175	-0.5	-1.2060244394359243
0.5309181575734548	-0.5	-1.2429077531337929
0.5025699451838047	-0.5	-1.3652863186224398
0.8438311974395283	-0.5	-1.0937537379337405
0.6741566780212038	-0.5	-0.7204494234430388
0.5017272714790155	-0.5	-1.0964300622358687
0.7050759682085487	0.23965968150903136	-1.5
0.5730222112886588	-0.230541044386811	-1.4999999999999998
0.5987157599847662	-0.39220550130989773	-1.5
1.2433122777611034	0.29628932374273187	-1.5
0.6740605638719851	0.01619287921165269	-1.5
1.1636192682541069	0.4905222678374934	-1.5
0.9663949943987035	0.40894245597029777	-1.5
0.5237986171472913	0.17990414351327558	-1.5000000000000002
0.8341219849695269	0.3411972171661374	-1.4999999999999998
0.51795763903106	0.42825722476094685	-1.5
0.9337837202987612	-0.029328778835887137	-1.5
0.6805448973239847	0.3949768982786399	-1.5
0.8218477749601618	0.03958957572946166	-1.5000000000000002
1.0340160034627637	0.17726553820561275	-1.5
0.9757761302347983	0.06919753988551436	-1.5
1.0760090989489628	0.28478732172622345	-1.5
0.8777225336578816	0.20743372058263054	-1.5
0.5738067796391831	-0.0489764629191689	-1.5
0.5001049942535853	0.28271177699241723	-1.5
1.2657091646182248	0.4850802993405643	-1.5
0.7531338185559137	-0.22020026266066808	-1.5
1.168844629054052	0.37332957631469843	-1.5
0.8298001588995957	-0.07394011222549926	-1.5
0.6696595014929126	0.14414825336571668	-1.5000000000000002
0.755231177548414	0.4807791278023713	-1.5
0.9353800412970129	0.2995977848638911	-1.5
1.0429591242982363	0.4842122509617164	-1.5
1.3806665083763388	0.40713604876624765	-1.5
0.6317153667833412	0.49709149043171463	-1.5
0.8855311391642575	0.4836599149931926	-1.5
0.5036768396272808	-0.48159635618040453	-1.4999999999999998
0.7914318253591818	0.13502664592991698	-1.5
0.5070252388068917	0.055749872809886435	-1.5000000000000002
1.1998787851052746	0.20197219519832932	-1.5
1.4806068193828519	0.49972607036996897	-1.5
0.6719975186767012	-0.09105405123931591	-1.4999999999999998
0.6040456445076535	0.3170089980325709	-1.5
0.6627855585503573	-0.28261090704394415	-1.5
0.5060593215530044	-0.31009584713686583	-1.4999999999999998
1.1438364182843486	-0.35920410541278236	-1.5
1.372337713240853	-0.13813654421388274	-1.5
1.0024262362798864	-0.17192878658762203	-1.5
