# .PCD v.7 - Point Cloud Data file format
VERSION .7
FIELDS x y z
SIZE 4 4 4
TYPE F F F
COUNT 1 1 1
WIDTH 1062
HEIGHT 1
DATA ascii
-0.3065016153580822	0.3194112800729004	-0.5
0.3080383876936421	-0.1733356664761374	-0.5
-0.04472476267735895	0.20421935762165325	-0.5
0.15132676151481358	0.4961627985382334	-0.5
0.09917888359725846	0.15086192106019003	-0.5
0.18226431753411013	0.06020776361786012	-0.5
0.3280887880700806	-0.000732684556807181	-0.5
0.49377555585512367	-0.4430633362161326	-0.5
0.19340597489297162	0.2035421173752462	-0.5
0.297270786126278	0.3367978678142105	-0.5
0.49375082897223876	0.4414371481295629	-0.5
0.34854538049984707	0.11662229385407136	-0.5
-0.11734958781262017	0.13485565982022263	-0.5
0.4558760724497628	0.25697141836056653	-0.5
0.32821403589015896	0.47593027183716097	-0.5
0.2293168202504885	0.42212339566840473	-0.5
0.31293806219247633	-0.2990431526100481	-0.5
0.04956693978430951	0.48551603209709115	-0.5
-0.19130203807980728	0.2137233988970857	-0.5
0.45688565446359114	0.1222806781903291	-0.49999999999999994
0.40401621296027246	-0.10696339259121423	-0.5
0.2408611683700559	-0.0554938436057556	-0.5
0.40474231864622645	-0.3707709312533859	-0.5
0.498423481217658	-0.31924988707929547	-0.5
-0.0032239697554313773	-0.25769984988027883	-0.5
-0.26274566266405486	-0.3263581903595446	-0.5
-0.21294354526265097	0.18226561895352356	-0.5
-0.3594025020136321	-0.18220729904263178	-0.5
0.29118626530236813	-0.30773373519878566	-0.5
-0.049912834973019626	-0.0746742900871411	-0.5
-0.213606411756046	-0.21636209379804472	-0.5
0.4392186130356933	-0.4933822462939129	-0.5
-0.48181727162062016	0.34700827545971324	-0.5
0.2603713762519081	-0.46219296715756963	-0.5
-0.4936376360615879	0.13598807192377954	-0.5
-0.3194690264448146	0.013756847894911883	-0.5
-0.23275288208416894	-0.05948545757394852	-0.5
-0.43427657931440067	-0.29839169133825294	-0.5
-0.2118612232643851	0.045119920901482535	-0.5
0.13829256508523488	-0.3208983539811656	-0.5
-0.3349440827065726	0.30811356140778	-0.5
-0.26672387041768353	-0.4864604012607997	-0.5
-0.4076679780322253	-0.42855139452429236	-0.5
-0.3972814238667211	0.19076878910795986	-0.5
-0.3966725812049839	0.08778225509242044	-0.5
0.149108736954393	-0.45291742187469575	-0.5
-0.11119525712160394	-0.2550673553462949	-0.5
0.34656125775525026	-0.40116929590108796	-0.5
-0.12935122699042345	-0.4699094462311276	-0.5
-0.014057637969862369	-0.39832684235912796	-0.5
-0.477588627412556	0.02278150458203193	-0.49999999999999994
0.047887986584066816	-0.12348059703854627	-0.5
0.032669679169020194	-0.4975127510184112	-0.5
-0.410627079960495	-0.06715576359436892	-0.5
0.09206414671572861	-0.21872810115819052	-0.5
0.2010626860258408	-0.20620474546597864	-0.5
-0.13622055492998064	-0.1307102402734952	-0.5
-0.08510820566421441	0.04004969340516461	-0.5
-0.4905665419437679	-0.19804735165007037	-0.5
-0.28839041354388767	0.1110556022720302	-0.49999999999999994
-0.48971313058240185	0.24296139979270348	-0.5
0.5	0.31328199695679493	-0.4123417300086294
0.5	-0.45736770108892744	-0.4639708732869732
0.5	-0.08002087713878558	-0.4909965315583539
0.5	0.2481379121493551	-0.1798184267299171
0.5	0.3538893042169192	0.004441093383183298
0.5	-0.20452065030552533	-0.37733132304612893
0.5	0.48330373365163726	0.15889666419370171
0.5	-0.0021231101529802926	-0.1395706692230585
0.5	0.22545022149326427	-0.01707222745195991
0.5	0.4914006436418856	0.459229681248577
0.5	0.4197749968676081	-0.49054484913802965
0.5	0.48012991217358225	-0.1645676079769469
0.5	-0.07741591180989779	-0.3275395804795308
0.5	0.3631927764317219	-0.2994042072706711
0.5	-0.1730451449996162	-0.2170972511390168
0.5	0.15931906867695383	-0.09649664890950904
0.5	0.442561905611137	-0.04890479780639523
0.5	0.09299926372215261	-0.25225675485030363
0.5	0.30281811926904156	0.26044247302690504
0.5	-0.3262975154975556	-0.4691756930083446
0.5	0.0886669239917866	0.009013605451794193
0.5	0.2179593570587437	0.19890128238435612
0.5	0.14818638609889512	-0.4249486252149308
0.5	0.37688076931198544	0.16683417744809378
0.5	0.006745777208429227	-0.39865022255980387
0.5	0.3777956193081533	-0.1879779812084216
0.5	0.43673629768208566	0.3462682216486165
0.5	0.4920429981316006	-0.3648697619516179
0.5	0.23750872732827583	0.0866933697491616
0.5	0.21113427798333625	-0.2998266324930948
0.5	-0.09995259821836798	-0.11364469247041965
0.5	-0.29177100338412454	-0.31460324208928336
0.5	-0.007878263817953438	-0.25259286242096424
0.5	0.4363502004762785	0.06363345421010067
0.5	-0.3724751974663667	-0.37461031048916493
0.5	0.23731463622361412	-0.4976467274689764
0.5	-0.018660940929908196	-0.031361663619280306
0.49999999999999994	-0.1198915782970082	-0.07142166669437233
0.5	-0.4178426516447039	0.40980929191963034
0.5	-0.31574438456087806	0.30790223896131386
0.5	-0.41473138459779424	0.039161020502921945
0.5	-0.060777868619077954	0.13054364023917575
0.5	0.051722113659771876	0.20898609536065138
0.5	-0.22496850139921074	0.37442465792866675
0.5	0.32606740299472614	0.42683681211944513
0.5	0.005739665241977221	0.36930814345178176
0.5	0.10291540963560386	0.312533233180736
0.5	-0.10978882109049734	0.44092315256602554
0.5	0.058851428596077865	0.454333761100132
0.5	-0.20698204230787476	0.08509185391067986
0.5	0.17073068909184586	0.21475211041092346
0.5	-0.3124724365244501	-0.17075061291932392
0.5	-0.21857501126601955	-0.09106016652404644
0.5	-0.39131364958921666	0.17550290301965776
0.5	0.208244156668554	0.33813394422346466
0.5	-0.4807012268495545	-0.16949069436435893
0.5	-0.2915204840572816	0.014794604177460702
0.5	0.20565249682716025	0.4406228382284326
0.5	0.48608302313684415	0.49181930181636024
0.5	-0.403285832840914	-0.26270211735002424
0.5	-0.4489999419504038	-0.412871750766428
0.5	-0.1270214035306526	0.22185987587434752
0.5	0.021958137862511325	0.044922115463945866
0.49999999999999994	-0.2094716358732847	-0.20518253202641523
0.5	-0.30778716667372047	0.11359842598184311
0.5	-0.34538971435684696	0.4953642053374737
0.5	-0.4998924345798659	0.25582350533519504
0.5	-0.2612510258798079	0.20391038024425712
0.5	-0.36325663800585684	-0.058931865369659775
0.5	-0.2945565110982434	-0.2779602146477273
0.5	-0.21242442208883813	0.4880724954151888
0.5	-0.4855150379876819	0.12265264360981551
0.5	-0.09752127646785158	0.3193725912143852
0.5	-0.4869168819104459	0.4835741835332952
0.5	-0.4726302523823209	-0.05291488795077395
-0.2364161891054568	-0.1076246384992281	0.5
-0.13437783034524825	-0.47353476086378726	0.49999999999999994
-0.46598896714498894	0.11894870829189105	0.5
-0.2760472658585277	-0.2641078056378344	0.5
0.39222351594134663	-0.48472719670396436	0.5
0.04476743666276051	-0.29982148415929355	0.5
0.08321272036563887	-0.13639180741051837	0.5
-0.07657218901330237	-0.11621149485654556	0.5
-0.32587186039907867	0.1836046268169631	0.5
0.13630882782489775	-0.4696461317284263	0.5
0.15039036058679955	-0.33128097899682896	0.5
-0.13866233923316956	-0.3643150404371638	0.5
0.2892254682429366	-0.37222433673405286	0.5
-0.38195889812128625	-0.3803019426197475	0.5
-0.276079862716338	0.036189374098270194	0.5
0.02606834483610833	-0.449995379868363	0.5
-0.35600644967618666	0.30221307009341947	0.5
-0.4495733220731637	-0.19940337591582047	0.5
-0.40005227039917635	-0.02743058501893189	0.5
-0.04438626285314043	0.03823094962583809	0.5
0.1857538823491466	-0.23766088109748632	0.5
-0.174797810342743	0.06439097927379245	0.5
-0.33929274969992695	-0.1304287728975997	0.5
-0.481288194451021	0.3719970756093065	0.5
0.29072614682240094	-0.47319481460106483	0.5
-0.28488112230094587	-0.4458519968827942	0.5
-0.04599773471982144	-0.21269167899997551	0.5
-0.16190180842226942	-0.265275508317511	0.5
-0.48291782220404356	-0.4352943620711188	0.5
-0.4712506515903019	-0.33527863839385674	0.5
-0.49152345765524064	0.24445663913436078	0.5
-0.4987942589828565	-0.0470439650411269	0.5
-0.36763123986717894	0.08039355995451072	0.5
-0.38369003603156193	-0.492857954998176	0.5
-0.20150462388936138	0.18118416901595633	0.5
0.01881212957732792	-0.04564687371862497	0.5
0.4925020737944118	-0.4990181924507333	0.5
-0.48835051942559615	0.48239810338925837	0.5
0.2906818934043317	-0.11831629064360893	0.5
0.44386931621036463	0.29737855789255296	0.5
0.4574807194729168	-0.23123750182888744	0.5
0.30306578086607094	-0.27995167277884025	0.5
0.21393287294027014	0.1743429191764647	0.5
-0.030576740731658586	0.3082943660364411	0.5
0.34574312147624153	0.10962074727268845	0.5
0.30185112732147945	0.4787236354651754	0.5
0.14274202159593663	0.09420140532246524	0.5
0.015498522303244609	0.47175307085630697	0.49999999999999994
0.45653111552370185	-0.01954969934783965	0.5
0.4951575370059854	-0.4636157242837433	0.5
0.4827959643824389	0.1757783685885871	0.5
0.1151983060198474	-0.005175503954471222	0.5
0.07473599713131235	0.34510840917245655	0.5
0.256945463751191	0.3750195758780318	0.5
-0.42256743823289744	0.481498181642812	0.5
-0.02202196414775784	0.060388378349472	0.5
-0.12780867919862612	0.4170467247731867	0.5
0.004372072613385847	0.19793482198327259	0.5
-0.09469930017071115	0.21714769194116246	0.5
0.1205553980106322	0.485219087948936	0.5
0.18851480337595894	0.29404472399306036	0.5
0.40312218245529763	-0.40064837118232133	0.5
-0.24739367818770033	0.3816508916728718	0.5
-0.27363851643815407	0.4954590112360444	0.5
0.2777350290976284	0.008048509288205136	0.5
0.32040124832409317	0.21973710446390388	0.5
0.4000051919401463	-0.14818624768401892	0.5
0.1849043567182057	-0.13244628589416652	0.5
0.44764803904089845	0.46635819125982236	0.5
-0.21838710303541264	0.2625571689281885	0.5
-0.34515163375523616	0.3467546742293377	0.5
0.10588831334260085	0.236791999682329	0.5
0.49570784496555154	-0.3257768963692935	0.5
0.36184749546583034	0.3795462525237108	0.5
-0.5	-1.1182386030350735	0.24939088419797248
-0.5	-0.6396080612058543	-0.31813615013358354
-0.5	-0.7474604048250872	0.12370765604967027
-0.5	-0.966245723592605	0.02743707955585839
-0.5	-0.667215137127159	0.007252503110978636
-0.5	-0.7041145566353092	-0.09524293078969691
-0.5	-0.7754637082979062	0.4354543811749989
-0.5	-0.9243385586984832	0.42868792080526946
-0.5	-0.5796676557803047	0.2848867726584484
-0.5	-0.6762642450121897	0.4089278432799267
-0.5	-0.511894706894078	-0.44459053787214275
-0.5	-1.048982367528058	0.3639678708304146
-0.49999999999999994	-0.5354794388732044	0.4485666379955166
-0.5	-0.8684109235396773	0.24509806473052176
-0.5	-1.0756206722840744	0.07604549494427859
-0.5	-0.5889101657744277	0.14145956532655007
-0.5	-1.3327247282428147	0.44548305511092645
-0.5	-1.1784414888972536	0.3725498273453709
-0.5	-1.1179348260897375	0.4792316244155027
-0.5	-0.5079790177424315	-0.2384671160257863
-0.49999999999999994	-0.7880470423567651	0.3326642824362337
-0.5	-1.250677451237823	0.2936106031155934
-0.5	-1.238623815995719	0.48834369529239585
-0.5	-0.9957560703493963	0.2213939213308978
-0.5	-0.7589209574865665	-0.21128202869183454
-0.5	-0.8152930211119327	-0.048833265807320614
-0.5	-0.5653089462090912	0.034644078700604375
-0.5	-0.8830236068803038	0.08573888741785124
-0.5	-0.6410838485328313	-0.19574472427519274
-0.5	-0.5369457281626018	-0.1359544713938681
-0.49999999999999994	-0.6759466140678482	0.2215585134701747
-0.5	-1.4827480663322674	0.4832419532306851
-0.5	-0.9229258624859937	-0.06476728287502195
-0.5	-0.9498876970437878	0.3264046381083943
-0.5	-0.8523997063968636	-0.19093154984152613
-0.5	-0.5845423644962368	-0.437316525300424
-0.5	-1.1170099296927827	-0.26815079741419245
-0.5	-1.2542002767881788	-0.24738500965367782
-0.5	-1.439203999034631	-0.04443740228321247
-0.49999999999999994	-1.0877124741422388	0.04497750201063667
-0.5	-1.254246866686537	-0.11461405705055394
-0.5	-1.3638732137603786	-0.2643462575208769
-0.5	-1.1314209669282258	-0.09184866530295188
-0.5	-1.0657682570520808	-0.45440277876201685
-0.5	-0.7571575117924765	-0.25674895455357905
-0.49999999999999994	-1.0150853166743123	-0.05927397726572658
-0.5	-1.4564403578670306	0.1328844818593952
-0.5	-0.8220967117603306	-0.38983730252853277
-0.5	-1.3435859945696602	-0.4997969826476125
-0.5	-1.4460751554460836	-0.48980846462340366
-0.5	-1.369215106581822	-0.39497893876668877
-0.5	-1.3366893266276407	0.12916236187344368
-0.5	-1.4966892494145592	0.4709881031967725
-0.5	-1.2214185504466275	0.038208491523603616
-0.5	-1.4573431092678375	0.3726225716462126
-0.5	-1.2257478889902444	-0.42754217724617405
-0.5	-1.4771734086641288	-0.38512673793378016
-0.5	-0.8722185070504029	-0.47929175922154377
-0.49999999999999994	-1.3899951116991416	0.2774897616363125
-0.5	-0.9678620624456192	-0.19666927497711428
-0.5	-1.4911130617039652	0.27750075829662235
-0.5	-1.027625599857894	-0.34729994812995935
-0.5	-1.2059661631296719	0.19130815106313379
-0.5	-0.7012090597095721	-0.3889585255972484
-0.5	-0.9252961329698759	-0.34456111497284847
-0.5	-0.7076983904814483	-0.49724232913295996
-0.5	-1.344671695795191	0.004334259487230624
-0.5	-1.4240807053215678	-0.18396824797389433
-0.5	-1.4991193812396806	-0.2863233216684221
0.1260924322896403	-1.5000000000000002	-0.3885099464892965
-0.2870992502172901	-1.5000000000000002	-0.4402729460419409
0.04108370274461903	-1.5	-0.2394538810940481
-0.014681424274823895	-1.5	-0.4529630292993343
0.15256593946700714	-1.5	-0.023536136372417804
0.17651909819512046	-1.5	-0.2084597883954247
-0.07686888940993894	-1.5	-0.2613481344971926
0.2622524914283171	-1.5	-0.14172046084576728
-0.20010043667101532	-1.5	-0.20583626801352142
0.37149005262031565	-1.5	-0.13795626006055706
0.4782629130596737	-1.5	-0.28765081042846974
0.3370917100856686	-1.5	0.32575902793031786
0.036273938594312605	-1.5	-0.13769829141350476
-0.23662221258713712	-1.5	-0.3119414253151075
0.22821540828390155	-1.5000000000000002	-0.4824042160056028
0.3333649347603004	-1.5	0.08467239678309668
0.3658172458540093	-1.5	-0.45715051144420393
0.47947847029563595	-1.5	-0.3914838609768114
0.3627776966900542	-1.5	-0.34795959874601523
0.4822516897499888	-1.5	0.01149876407655434
0.4424257786737035	-1.5	0.29622224843906186
0.4415326999556418	-1.5	0.17951612996360508
-0.15296238781262983	-1.5	-0.4628477981879947
0.275830552529404	-1.4999999999999998	-0.2567330114221197
0.1715576376922715	-1.5	0.08446237855726291
0.03697817877899304	-1.5	0.022451904065159484
0.3127041885374433	-1.5	-0.05333555192348538
0.2577333054823483	-1.5	0.15821229812418824
0.4581389781857733	-1.5	0.4157733200457766
-0.12772954194527641	-1.5000000000000002	-0.35343826178269455
-0.06404751326139224	-1.5	-0.11043849821905227
0.23896985561881656	-1.5	-0.38164654829277067
-0.4634739374148308	-1.5	-0.47920025358146234
-0.3885156966128527	-1.4999999999999998	-0.406848231457017
0.48887551680426045	-1.5	-0.18329550504075584
0.08632079477266896	-1.5	-0.48137187210293586
-0.4563970926573213	-1.5	0.4095243323362555
-0.09542073735550821	-1.5	0.18820797742234574
-0.38182856242165597	-1.5	-0.11962311137347933
-0.2865698074905827	-1.5	0.07568397932924187
-0.3824065265203157	-1.5	0.14433156719908202
-0.2788925555952592	-1.5000000000000002	-0.22380029626796485
-0.23452258261524622	-1.5	0.16774136579968846
-0.22747625099481514	-1.5	0.31801291793621633
-0.3180154444430947	-1.5	0.4879062086572289
0.17303015349399975	-1.5	0.4049149742239583
0.07897255891559328	-1.5	0.13805319316007372
0.4576082730894321	-1.5	0.47275531828952233
0.26501549484335707	-1.5	0.47639136815746475
-0.47780629254154305	-1.5	-0.35258037069033
-0.1198349489047234	-1.5	0.016571934917208098
-0.09763772034875154	-1.5	0.46992047601363085
-0.37446822341371433	-1.5	0.3407612898345177
0.08760255892680865	-1.5	0.4965330770052493
0.09827718029497493	-1.5	0.2611067965577888
-0.44825815168153105	-1.5	0.038007012579232335
-0.08467775239751751	-1.5	0.3672813789162179
-0.2458846889175138	-1.5	-0.09686329321926614
0.06251393910900771	-1.5	0.3974716009869924
0.25732649615198355	-1.5	0.3333430735555992
-0.4048052364759657	-1.5	-0.280533610492341
0.34794847651442495	-1.5	0.4137177746784463
-0.3284143657213965	-1.5	-0.03165754615905672
-0.482534463283008	-1.5	0.19603776816402807
-0.2081700563365012	-1.5	0.46910370656415934
-0.014338196447039028	-1.5	0.04457240079950807
-0.4938198169099607	-1.5	-0.13404184474795147
0.003491070883533398	-1.5	0.29989429951283453
-0.4995546183896109	-1.5	-0.47255074284001086
0.19710358820119964	-1.5	0.24449890553055878
-0.12001704667492703	-1.5	-0.09019192426099186
-0.3494192478168563	-1.5	0.23930227191682318
-0.4941859780424397	-1.5	0.3062324314177347
0.5	-0.8303277813316067	0.07495933753349801
0.5	-1.1599074631164716	0.3142688019790505
0.49999999999999994	-0.5094754232494706	0.42900023996724207
0.5	-0.5949969716874703	-0.0886372009319516
0.5	-0.8477328249885894	0.20494016898356493
0.5	-0.5642106261274891	0.1985262607353777
0.5	-1.1418960042765633	0.4573997451844768
0.5	-1.1045325729721154	0.15213219115520607
0.5	-0.5668157134179951	0.30549158521227104
0.5	-1.0335300562091523	0.07532524526308892
0.5	-1.0539357104064473	0.32386782648679646
0.5	-0.6441550051861944	-0.3507318926566353
0.5	-0.7663710528083327	0.39336787077997365
0.5	-0.7386122412352814	0.19731290812901692
0.5	-0.6347548008741872	0.42585938202652796
0.5	-0.6628134359879851	-0.24975679400006304
0.5	-0.9929184469088579	0.431843799768201
0.5	-0.7644764849967081	-0.2292468770787798
0.5	-0.7264820675647615	-0.09108060416571331
0.5	-1.2965070389390605	0.32672904665124425
0.5	-1.4218340715316458	0.4550467939753312
0.5	-0.5310648902254206	-0.424370477683763
0.5	-0.866354383966724	0.421996616727097
0.5	-0.9325810343895091	-0.044561593097930396
0.5	-1.2646278882848372	0.4725537232321243
0.5	-0.6787590419308083	0.08846078225609932
0.5	-0.820618676974209	-0.1252821849709698
0.5	-0.9098382820478845	0.28987641573994954
0.5	-0.9589760630342758	0.1465106282952566
0.5	-0.5067401836459232	0.09504429615202584
0.5	-0.5437172173528921	-0.30741597872495574
0.5	-0.5036730319809479	-0.19499248922219037
0.5	-0.7258860634428775	0.49078976145436426
0.5	-0.7465359885813253	0.012742138902582134
0.5	-0.6761888507274327	0.32806333980413116
0.5	-1.2002680140364435	0.20818460948948392
0.5	-0.5940533125182822	0.029709180006252223
0.5	-0.5054437565888219	-0.0255261958753821
0.5	-0.8297428930230285	-0.32558927385645364
0.5	-1.2945569210874504	-0.4836809116947821
0.5	-1.020556281187633	-0.11459650775638432
0.5	-1.4498983489013664	0.21145832060834177
0.5	-0.7078515640745656	-0.3163487716813058
0.5	-1.1995135374046157	0.007273409161028824
0.5	-1.473990324249598	0.0034563482582211646
0.5	-1.1709210105816898	-0.290341666173906
0.5	-1.3450509475267496	-0.053696023555160066
0.5	-1.2748196145721495	-0.26305980702695453
0.5	-1.4463353638892578	-0.29920922755226087
0.5	-1.07928444534986	-0.23551300419884375
0.49999999999999994	-0.8298227716848974	-0.4336179746202706
0.5	-1.344104054906586	0.09236954844260456
0.5	-1.4087604171815005	-0.4529772864043058
0.5	-0.6605583223330016	-0.4539649762613771
0.5	-1.4026000930368758	0.39820492856991085
0.5	-0.9472590417306276	-0.4558573888647189
0.5	-0.9356517117221926	-0.32952676552168003
0.5	-0.9169276772822647	-0.18146723276348525
0.5	-1.14984599776416	-0.47036743620066723
0.5	-1.2219054468879953	0.14301295659171198
0.5	-1.219857079000341	-0.3801211478019867
0.5	-1.0630699104016048	-0.34423375235766374
0.5	-1.0925916618355453	0.08108284792908906
0.5	-1.490746988441146	-0.20516821061613336
0.5	-1.1820105310620863	-0.11767480451123835
0.5	-1.3049812877508986	0.28390852180670234
0.5	-1.3631275314273998	-0.2078917320725284
0.5	-1.0489843720028433	-0.4871148555622252
0.5	-1.3563719342483633	-0.3521543929265377
0.5	-1.490100013637355	0.10457839867481075
0.5	-0.9873012527807155	-0.01750856086860304
0.5	-1.4942747663872065	0.34394023751549574
0.5	-1.1026471517025482	-0.05104191356056505
0.49999999999999994	-0.5557573365676424	-0.44802625503238885
0.5	-1.4409884502283914	-0.09416886724985832
0.5	-1.493578632151491	0.44868582373945975
-0.5	-0.8875417595436119	1.4033248162110006
-0.5	-1.2079635595403824	0.9779290600156277
-0.5	-1.1011622845231204	1.4766392459453146
-0.5	-1.1869609081969166	1.388136432350597
-0.5	-1.3396221487895845	1.0358677602764015
-0.5	-1.479808156466034	0.6570199409768299
-0.5	-0.8212928170373082	1.2221924937647846
-0.5	-0.6247925381653225	1.4965392518141987
-0.5	-1.0016172800038752	1.241996559936811
-0.5	-1.0578954503109987	1.382550382433241
-0.5	-1.195323649208347	1.1131025199639135
-0.5	-1.2434032188638686	0.7599986031025775
-0.5	-1.3125056762655718	0.84201284086931
-0.5	-1.44636139480596	1.0716319846975808
-0.5	-1.4885332393720319	0.7767378467134476
-0.5	-1.0994214846606736	0.9733613800288683
-0.5	-1.3050894400009612	1.2561964989638474
-0.5	-0.9724388915210898	1.079183855724373
-0.5	-1.102739867824676	1.1585524024410383
-0.5	-0.7265213065153855	1.43382860482903
-0.5	-1.4813672246363134	1.4424062272092848
-0.5	-1.3030298441922465	1.377041195933817
-0.5	-1.4387777976579716	0.8852994670410621
-0.5	-1.1586048933251547	1.2593688839962065
-0.5	-1.4415860065503001	1.2453852842668596
-0.5	-1.402923488950998	1.356557242164897
-0.5	-0.7954482611802176	1.3479384269644468
-0.5	-0.8273042238293219	1.4928213995207082
-0.5	-1.3762922726527291	1.1529725032833578
-0.5	-1.2949196669161134	1.4966485906717095
-0.5	-1.340371242100527	0.6946500080878711
-0.5	-1.2113989684792108	0.8742643232000594
-0.5	-0.69299617499054	1.3204580956127012
-0.5	-0.9947320328052996	1.4726709744118107
-0.5	-1.4892926601068535	0.9750490902375795
-0.5	-1.4421242051539078	0.5634579529783477
-0.5	-0.5214280916997595	1.494375476520706
-0.5	-0.9095465217080673	1.1579982391064183
-0.5	-0.9094860552962563	1.2821694087556796
-0.5	-0.6074521672359275	0.7418710756196791
-0.5	-1.0684320454696166	0.7470342855055794
-0.5	-0.6266755870446549	1.1878170943417456
-0.5	-0.8067714799402815	1.1845759770128672
-0.5	-0.7319617984503639	0.9307359770105945
-0.5	-0.7804743329820693	0.789479206659343
-0.5	-0.986398806543608	0.5121327101485507
-0.5	-0.5255090820559617	0.6704921780318646
-0.5	-0.7870331807340584	1.0249591098185504
-0.5	-0.5667217197589544	0.5188980485052108
-0.5	-0.8808467971838658	0.707873081817834
-0.5	-1.2916742857002776	0.5884564612369936
-0.5	-0.6361986952149157	1.0309138586188367
-0.5	-0.6256187296385834	0.9157390561910226
-0.5	-0.6839954408083024	0.5687593073057875
-0.5	-1.4127373133730823	0.5665875799425791
-0.5	-1.0072260950543264	0.6419842550358921
-0.5	-0.591851479473015	1.3207632480700515
-0.5	-0.9546581863072418	0.9721188417279575
-0.5	-0.5186247287990499	1.0220916627963244
-0.49999999999999994	-1.0510642104637302	0.8793099275965466
-0.5	-0.847197797738533	0.532139464218601
-0.5	-0.8873987286310026	1.053129910312775
-0.5	-0.9612475880092985	0.7900356667259598
-0.49999999999999994	-1.2094814759231856	0.7162219293585513
-0.5	-1.100127338485491	0.5707341582107929
-0.5	-0.8521409736623105	0.8656612936174058
-0.5	-0.7167711620232406	0.6729384109598953
-0.5	-0.5151470056958545	0.894413786183414
-0.5	-0.5500158907245734	1.1188668234860617
-0.5	-0.6909064351473178	1.2715196669066182
-0.5	-0.513916980053591	1.4495198511640126
-0.5	-1.1658458900943993	0.8081793364378395
-0.5	-1.2029687127058102	0.5413800247868061
-0.5	-0.5093892283245344	1.2537953422410173
-0.5	-0.70857044196935	1.1021352905369002
-0.5	-0.5186677282047855	0.78802219746021
0.27393748536365203	-1.5	1.083780047103489
0.2145629614097061	-1.5	0.5665147746228213
-0.25948298986348306	-1.5	0.7076376652735438
0.4199276142815933	-1.5	0.5817762858302291
0.21309727879662882	-1.5	0.8782486176283911
0.1706963719284533	-1.5	1.1377236046101071
0.44526189298404517	-1.5	1.4130293411214552
-0.04431014588026727	-1.5	0.7855689010761162
0.2718263032576922	-1.5	0.6527694218338806
0.3977611924827871	-1.5	0.7910588330438905
0.28537722117482167	-1.5	1.207534203688045
0.17678174867345237	-1.5	0.7669391318532573
-0.16272915308678368	-1.5	0.5465255084979083
-0.18654423988563376	-1.5	0.8062674869004972
-0.2524952927807752	-1.4999999999999998	0.5972187053039874
0.48184699963854083	-1.5	1.1837509566613331
-0.0910844302948075	-1.5	0.6233968072703912
0.009393381194600592	-1.5	0.5788565066660711
0.32750773707156544	-1.5	0.9346704572528057
-0.02413147365124433	-1.5000000000000002	0.9404532304704863
0.3914277658046413	-1.4999999999999998	1.2491842072961692
0.08308572699196129	-1.5000000000000002	1.081046787086946
0.4403515906001788	-1.5	0.6946240308802619
0.05500831571556765	-1.5	0.8215722337427973
0.2752823710297644	-1.5	0.7962281079177916
0.22841287787007836	-1.5	0.9892774681943957
0.38545429082478766	-1.5	1.1069635735470416
0.07857161898393822	-1.5	0.7103650956958549
-0.48945655706451474	-1.5	0.5080576467971641
-0.1538741982460683	-1.5	0.7027937925540615
0.49146131572321494	-1.5	1.038434463531573
0.11464366414296334	-1.5	0.5470652438745978
-0.4052830161936083	-1.5	0.5660113755443343
0.45244960258035705	-1.5	0.934821385037262
0.0846956415709811	-1.5	0.9546208724294724
-0.4961151868308725	-1.5	1.4862173518355266
-0.10841497007020276	-1.5000000000000002	0.9871322050956673
-0.3845445759499969	-1.5	1.3987580041932137
0.2812056712886084	-1.5	1.4627605784294742
-0.4590057432633654	-1.5	0.6247495029157814
-0.4039367142170113	-1.5	1.227788490703924
-0.24910061548631246	-1.5	1.3612965145409108
0.14150436788402798	-1.5	1.3826132411242744
-0.026059095769863247	-1.5	1.1986626375096325
-0.1407928731274215	-1.5	1.246225956830706
-0.3150637425191256	-1.5	1.0554341936546854
-0.27697310574348294	-1.5	0.9220632215221044
-0.41117932979376937	-1.5	1.0161952756778083
0.01996967788348117	-1.5	1.4063114759096356
0.39013217383890375	-1.5	1.430842792741078
-0.010313195794875999	-1.5	1.0388835487434622
-0.4096302142624956	-1.5	1.1201005790584855
-0.2197489040646543	-1.5	1.1207060991963032
0.11214096024775523	-1.5	1.2454826297539214
0.26640146783849794	-1.5	1.301088457691502
0.09388488181408247	-1.5000000000000002	1.1072024030081322
-0.2641916963697188	-1.5	1.2312102839572237
-0.357797767042609	-1.5	1.4954028140124633
-0.4342731725044512	-1.5	0.8956228024657205
-0.4917750880917217	-1.5	0.5111726325306218
-0.4455282938124701	-1.5	0.7657791497919958
-0.06922265260598684	-1.5	1.4846925937146394
-0.2472059867107004	-1.5	0.7971702227551779
-0.2988593700486019	-1.5	0.7035621240764272
-0.050378805564727513	-1.5	1.330786397622228
-0.49507939807628953	-1.5	1.335972278668572
-0.1403846130253733	-1.5	1.4067638979290968
-0.21344838027632781	-1.5	1.4934355351119586
0.4852435673578559	-1.5	1.4911682309228125
-0.10576333042037063	-1.5	1.1230548701574885
0.17431972410829996	-1.5	1.4922772867472602
-0.17808919505712245	-1.5	0.8821087439594516
0.5	-1.3546887378665804	1.124698575516598
0.5	-1.2387398812481236	1.4987828441100712
0.5	-0.9351903986910813	1.241689888468412
0.5	-0.9764689230574195	1.4279380365293304
0.5	-1.4672005025244184	1.412757414621589
0.5	-1.1466484855738968	0.9002783773680668
0.49999999999999994	-1.4329569913256277	1.2117578037090944
0.5	-1.4153507686234927	0.6716274235469212
0.5	-0.6688803957703781	1.4124689243998318
0.5	-1.179213397148737	1.2394480129087657
0.5	-1.357124152456492	1.4021142697719087
0.5	-1.274354850417271	1.2966599032009398
0.5	-0.8092546506945659	1.3226193699667355
0.5	-1.306297755287092	0.7327946039034856
0.5	-1.4695383176876837	0.5682088627479689
0.5	-1.464048792773358	0.7673257281235937
0.49999999999999994	-1.4874503118933693	1.3004161739794593
0.5	-1.3047276965569667	0.9295683228592754
0.5	-1.23098227721888	0.8440221052636809
0.5	-1.1310088311346411	1.381802749095088
0.5	-1.150772418409014	1.1176665412538096
0.5	-1.0663556143550317	1.219642663712704
0.5	-1.4896086578056544	0.9260412972830385
0.5	-0.8311398290575299	1.1778508083666588
0.5	-0.8016187940630921	1.4962025960323722
0.5	-1.38321540854217	0.8635270839520108
0.5	-1.2419921366233366	1.0372336797673485
0.5	-1.3535797387060606	1.0203075143389693
0.5	-0.9267913130193997	1.0819922308580132
0.5	-0.5549511059144276	1.4478479397241202
0.5	-1.0607658271095102	1.0137040528817167
0.5	-1.0247696342304755	1.1232527212732029
0.5	-1.0182955586502036	1.3172152956683256
0.5	-1.4905009576837636	1.050200924818523
0.5	-1.0688040170425468	1.4724964167350998
0.5	-1.2485809757665776	1.1548005825139074
0.5	-0.735888594178826	0.9864467762193014
0.5	-0.6243739964622959	0.7105377747412692
0.5	-0.7975400097709427	1.1052723727219176
0.5	-0.9745359460265532	0.9892439227744716
0.5	-1.157279453228314	0.6695601584903981
0.5	-0.9639662374028077	0.6563555967858733
0.5	-0.563548231951021	1.1183952618132766
0.5	-0.8588478302811903	0.7451762928475586
0.5	-0.929552020131819	0.8446913162302339
0.5	-1.0568891080703238	0.5449615439504563
0.5	-1.2555096195252367	0.6467773898028857
0.5	-0.7138003124934744	0.8040036148663714
0.5	-0.8607929201780876	0.9953713106166165
0.5	-1.3682019784785486	0.5761284413024363
0.5	-0.5759073884661667	0.8721848915064132
0.5	-0.5403633916297035	1.2816253019468717
0.5	-0.657721868248029	1.2836078124234997
0.5	-0.8212588603448635	0.5287822620693496
0.5	-0.5822465814229403	0.6099490081522438
0.5	-0.8286011382022541	0.8417431208283892
0.5	-0.6766236966072996	1.0781575520131774
0.5	-0.7380475606046908	0.6122608442576083
0.5	-1.0700938807754956	0.8686579220223443
0.5	-0.5372506019332733	1.442583201967251
0.5	-1.0999039462826514	0.7634282999522919
0.5	-0.6929923942388444	1.1836214335410138
0.5	-0.5110233020248649	0.7691603675416926
0.5	-0.5242620966248394	0.5092263711169219
0.5	-0.5169199293862101	0.982515436287178
0.5	-1.2133918762734626	0.7662033658657481
0.5	-1.228109684410245	0.5281990686293059
0.49999999999999994	-0.9229592665784622	1.0753134323412168
0.5	-0.9555057101749012	0.548970392367241
0.5	-0.6428245132602262	0.5162822883368415
0.5	-0.8602449706802388	0.6315728741733185
0.49999999999999994	-0.9983480464366586	0.7578314227028642
0.5	-0.6289244649905246	0.9590382958614696
-0.3698817755508619	-0.5	1.0991788956357478
-0.3212055893134307	-0.5	0.7772560517553964
-0.2269542999734742	-0.5	1.222307336843049
-0.16416844904953595	-0.5	0.6331723823756309
0.011232937613204225	-0.5	0.9835127144863053
-0.28448578871528635	-0.5	0.954900364323535
-0.1306664687515117	-0.49999999999999994	1.0541307904199007
0.32768400564680245	-0.5	0.5224644985642191
-0.3942638734933043	-0.5	0.5108585466542828
0.03390836866749791	-0.5	0.8268396240072331
-0.21544631737198727	-0.5	0.8030368113129598
-0.2264667971305009	-0.5	1.1071982513518661
-0.06814397826308327	-0.5	0.850297785030605
0.025082927026346985	-0.5	0.6805117864753479
0.24256447065288134	-0.5	0.6252319324949756
-0.365617957736938	-0.5	0.8792858920462613
-0.38041994927747214	-0.5	0.6481771842023893
-0.4741717943619512	-0.5	0.6035783435401298
0.21999669731376692	-0.5	0.7753213079442957
-0.48009467754402757	-0.5	0.9790509774658847
-0.43722614462152676	-0.5	1.4032647462644348
0.11768813999405849	-0.5	0.7453745545640457
-0.4765371881468713	-0.5	0.710156639682794
-0.19165426362833585	-0.5	0.5246171554074148
0.12297727703688746	-0.5	0.5260066252031983
-0.4238123309227439	-0.49999999999999994	1.263691104993002
-0.26306248836941615	-0.5	0.6609236706934034
-0.32988493550303993	-0.49999999999999994	1.206508347235466
0.009157290969005749	-0.5	0.5437624729483893
-0.48451858234227396	-0.5	1.174215911371284
-0.09384119085263637	-0.5	0.7272155746697088
-0.2891244090888211	-0.5	0.5529972674655685
-0.12144410975674198	-0.5	0.9511246996324514
0.14162338723495205	-0.5	0.6479744432112781
0.4504635081659536	-0.5	0.5442610605927655
-0.4855692568497406	-0.5	0.8104481815690051
-0.343123457278247	-0.5	1.3411100868650667
0.3523027356564873	-0.5	0.646668047549246
-0.49529914152997645	-0.5	0.505714213157758
-0.23317966074101482	-0.5	1.4695869623903257
0.1690070019622342	-0.5	1.4066537998400528
0.4778363533511606	-0.5	1.2982108185834713
-0.17757213769065808	-0.5	1.293152305846227
0.36439089946055514	-0.5	0.6903038994305117
0.4428757036877618	-0.5	0.9467630930423012
0.26864973663332103	-0.5	0.8003840774991665
0.19463493012086658	-0.5	1.0561518420846951
0.0026501919960726372	-0.5	1.1954749370745765
0.14052264713784568	-0.5	1.2438432637690808
-0.10245142067536431	-0.5	1.4735066351259185
-0.3790720096236062	-0.5	1.4009294282372924
0.3106879592428248	-0.5	1.363157184628582
0.46692574535677556	-0.5	1.4228014087089127
0.3200721496540151	-0.5	1.1783458242921558
0.4607055543710244	-0.49999999999999994	0.6260654312886228
0.04983462031822422	-0.5	1.4146339629508096
0.4864418803886118	-0.5	1.0771048505582503
-0.2806236616128409	-0.5	1.2853938822909392
0.2673082406238277	-0.5	0.9669658839346896
-0.015281940067655698	-0.5	1.0348738794197612
0.3497201316918239	-0.5	1.478015156435815
0.37887030293435336	-0.5	1.0936824580512226
-0.03852820323729808	-0.5	1.3322947141203159
0.43232998233738706	-0.5	0.7909063180610272
0.35041649437026967	-0.5	0.8828619124055341
0.09019879990372558	-0.5	1.0300722332286287
0.09640823201512368	-0.5	1.1335048501521778
0.14310942047163064	-0.5	0.8790567443540314
-0.46510194364952806	-0.5	1.4714777898743578
-0.3349731632597118	-0.5	1.4907850992085216
0.47898482023966166	-0.49999999999999994	0.5256051004418268
-0.16423463549821493	-0.5	1.3941589988854477
0.24127620138775482	-0.5	1.4843191620821683
-0.1436727119864516	-0.5	1.1769225045383125
0.49929077059666416	-0.5	1.195817203692291
0.19499768279785173	-0.5	1.1571579274305954
0.37046784835156543	-0.5	1.2686895460758536
0.23859083197638817	-0.5	1.2819084425696035
-0.07113446379902734	-0.603113516292698	1.5
0.04122346933317822	-0.8445331357676542	1.5
-0.23678953753205026	-0.5372293636402508	1.4999999999999998
0.23073192320273397	-0.7011989215956975	1.4999999999999998
0.4173712729896646	-0.865949604511387	1.5
-0.13933649429500594	-0.8113480323768321	1.5
0.4644138602590486	-0.6115359794603059	1.5
0.26329314371175155	-0.9950940674395586	1.5
0.19187613944403004	-1.116544821086339	1.5
0.30413810720100565	-0.8691427642681153	1.5
-0.3998742142251839	-0.5378690405485818	1.5000000000000002
0.0775806521188665	-0.7363899800453552	1.5
0.35648952557679475	-0.7233899306857454	1.5000000000000002
0.030392907998668728	-0.9664894623726449	1.5
0.3378298613425943	-1.2298738649638543	1.5
0.34421901520089665	-0.6209756901200445	1.5000000000000002
0.17869228047863983	-0.8037403398079787	1.5
-0.26509806873395547	-0.7068175331620854	1.5
0.3464737571567692	-1.1162267559341492	1.5
0.4855368155780925	-0.7218605150085471	1.4999999999999998
0.4561932895846432	-1.3921689184187038	1.5
0.1935448887491169	-0.541833586294591	1.4999999999999998
0.4494310181248582	-1.2819793350140243	1.5
0.06441307330322146	-0.5486325100122558	1.5
0.38856194322458154	-0.9781659309306152	1.5
0.1565763254960979	-0.9217883447367113	1.5
-0.07340811404217407	-0.8884798535484278	1.5
0.4467323273645464	-1.1458334258493772	1.5
-0.07372586199393406	-0.726611069463018	1.5
0.07509425087469312	-1.059601349702731	1.5
0.48291625865849197	-1.0267510431837565	1.5
-0.12824192118276445	-0.5014264166506479	1.5
0.466594095183269	-0.5099950802823326	1.5
0.3426543943995279	-0.5207826233396381	1.5
0.12283106428435586	-0.6369574709460395	1.5
-0.17155909231538088	-0.6302865629283444	1.5
-0.4488922448507404	-0.8300735006087806	1.5
-0.10840228721512102	-1.418207525260673	1.5
-0.4400465082491797	-1.2027951141071442	1.5
-0.3077873615993538	-0.7553104586518942	1.5
0.34892952245585307	-1.4635520440148766	1.5000000000000002
-0.19335634932909407	-1.227147836145912	1.5
0.1573227829084147	-1.2738069891963566	1.5
-0.41926035023654296	-0.9544083416284821	1.5
-0.05921330541991013	-0.9972395415797515	1.5
-0.30629731928975246	-0.9589473262656645	1.5
-0.17536197873558235	-0.9075968524260984	1.5
-0.33155176148737275	-1.4632181213421245	1.5
0.029223840427226727	-1.2899344540929243	1.5
0.2518129392333529	-1.3815468946458036	1.5
0.03627948865211253	-1.1749898096523093	1.5
-0.3585402277079489	-1.3303286158209855	1.5
-0.1452887287387047	-1.0879092200099525	1.5000000000000002
-0.4821104080450095	-1.4921934491499522	1.5
-0.4855258601103052	-0.5639113151691696	1.5
0.34925164349714494	-1.3583327711892512	1.5
0.04429399690338445	-1.0643246008361131	1.5
-0.19422536831590678	-1.4972154140603862	1.5
-0.21558652735231662	-1.3919518226378829	1.5
-0.415061501720965	-0.6770497921341135	1.5
0.06783624773603061	-1.4628061176106937	1.5
-0.009275901609800519	-1.3851914451236333	1.5
-0.3143215183286775	-1.1478779075028196	1.5
-0.08503435693911487	-1.169635085870435	1.5
-0.10860028171872192	-1.287881616888135	1.5
0.4772957979400528	-1.4966960244656344	1.5000000000000002
0.25050633252746923	-1.4920039956560993	1.4999999999999998
-0.39334802953380565	-1.0854874019165692	1.5
-0.2089390923822461	-0.8074182179126731	1.5
-0.47327097144584107	-1.3614431185432818	1.5
0.14116973467512595	-1.3803033036588979	1.5000000000000002
-0.23179228419971687	-1.0270526549195198	1.5
-0.49548159138936376	-1.046169161148743	1.5
-0.3434200693285385	-0.8487850335191558	1.5
0.2774016860119559	-1.2828954487350062	1.5
-0.5	1.1609416601477673	-0.09268586779530794
-0.5	1.0446001884756613	0.30255642634045277
-0.5	1.4240411570206966	-0.41339837244621735
-0.5	0.7884079149970972	0.228896375155851
-0.5	1.0543830114539894	-0.012216335783584609
-0.5	1.3690050163089973	0.28986298324249105
-0.5	1.261051822212547	0.4994646738214358
-0.5	1.4628367419739043	-0.09967375458949304
-0.5	0.679800333565211	0.40738751023459385
-0.5	1.4884007450796986	0.31654444503963175
-0.5	1.2674536421692684	0.13822774515505432
-0.5	1.1908083850352362	0.03327767499999193
-0.5	1.375703467274235	0.05788612317260175
-0.49999999999999994	0.8641576667751594	0.3734608577830059
-0.5	1.010295930069352	0.49156288806732373
-0.49999999999999994	0.7855595910030054	0.48435803512808767
-0.5	1.2889666076461685	-0.23591326331691012
-0.5	1.1266874289379734	0.15343457390594062
-0.5	1.1807999297927796	0.2919094455660496
-0.5	1.4155312047881503	-0.20322046533852578
-0.5	1.2710635251469857	-0.13008747917287333
-0.5	1.3800083977887663	0.18723254134416242
-0.5	1.3294748139635058	-0.03631859128865075
-0.5	1.1052905432957367	0.4310652526318788
-0.5	1.359333551474559	-0.3239601801840969
-0.5	1.359783009118166	0.4834597366017265
-0.5	0.9329288036336301	0.1517895502670028
-0.5	1.035307398064949	0.10501845197399481
-0.5	0.905007819715671	0.49022761867027564
-0.5	0.754559167275109	0.3302485954495189
-0.5	0.9134346018063452	0.2626336257132822
-0.5	0.5352812115368718	0.47352795060497643
-0.5	1.4150121716805601	0.3928135261216048
-0.5	1.4976847610042605	0.16034900981209413
-0.5	1.294751721875415	0.3570043542495903
-0.5	1.4721043458340708	0.48122207468434786
-0.5	1.4719068356137028	0.018446323201811082
-0.5	1.2735349446199078	0.2497303287694136
-0.5	1.4985401790159387	-0.267122787717912
-0.5	1.1462847563960803	-0.23422575772395626
-0.5	0.9524075260620255	-0.37573607690024047
-0.5	0.651183825617913	-0.35833688351619497
-0.5	0.5860961310511217	0.07116840257608945
-0.5	0.8928568715003347	-0.05808344123306031
-0.5	1.0862594448985425	-0.4782103161942731
-0.5	0.8152178479417309	-0.4440285089883447
-0.5	0.8318435344546955	-0.16673847150572407
-0.5	1.0140049418075618	-0.2492294519248952
-0.5	0.6031809334220704	-0.48820684562474115
-0.5	0.8127669629228919	0.02657934032992995
-0.5	1.2618811746237188	-0.34477740028549975
-0.5	0.6137234633882105	0.2583779393232257
-0.5	1.1015415055050788	-0.11793002830721142
-0.5	0.7125851784876064	-0.26968148263306113
-0.5	0.6625637828879017	-0.13982158836276548
-0.5	0.5483392577405712	0.35240014906659367
-0.5	0.9128957300038304	0.05838287479535523
-0.5	1.4527811460539237	-0.4810604413908607
-0.5	0.8287059117349229	-0.33971560537973455
-0.5	0.565707463250519	-0.10742201524965844
-0.49999999999999994	0.7495537991432331	0.24223937417505595
-0.5	0.6380900496971541	-0.017511339629411538
-0.5	1.1386570045738804	-0.39166754213474975
-0.5	0.5008185765583055	0.005823495282361035
-0.5	0.7506191903032501	-0.05350577035267823
-0.5	0.691611352598666	0.06745712156295228
-0.5	0.5378362675078167	-0.3478621528318734
-0.5	1.370888009259948	-0.3816173872330918
-0.5	0.5256439615903239	0.15406409459689008
-0.5	0.5537072707089699	-0.21494640515404564
-0.5	0.8416609454076497	0.1551859170269916
-0.5	1.3103694923800993	-0.4929336335249572
-0.5	1.0020863567909384	-0.013650119396712592
-0.5	0.9485574462136633	-0.14967228678512234
-0.5	0.5013898511815016	0.4982341691974475
-0.5	0.9197480053115341	-0.47472490609205975
-0.5	0.7062655486962399	-0.4695940109184278
-0.5	0.5051663782762856	0.2596353570345675
-0.5	0.90717202236745	-0.2637012154193106
-0.49999999999999994	0.6729210773723461	0.16718737493524088
-0.5	1.2091101722847	-0.4782856674645378
-0.37900712271366443	1.4898612375570819	-0.5
-0.05196603982659087	1.3742279187935786	-0.5
0.1948818746586697	1.4017877346481842	-0.5
0.14836485526978335	1.059647738007098	-0.5
0.4790367812792993	1.0275736419640171	-0.5
-0.23542750239313262	1.351364666636348	-0.5
0.2319649737716933	1.160058899313837	-0.5
0.2505915657063216	0.8615477897183103	-0.5
0.33505122510167384	1.0588356450196907	-0.5
-0.04261086818609636	1.2311647486730992	-0.5
0.40627518922574535	0.7004265576888172	-0.5
0.10725525199409905	1.1579063217942842	-0.5
0.47200791081882953	1.3084027495371289	-0.5
0.37474363241633596	1.4616299701309121	-0.49999999999999994
0.3123247350236751	0.7818876368806033	-0.5
0.419853995264257	1.181534338888284	-0.49999999999999994
-0.11655571032625511	1.1329113843752951	-0.5
-0.0028912268067217417	1.0536924810327155	-0.5
0.27085314562563423	1.3363239673383824	-0.5
0.4831116353953311	0.5689756677147961	-0.5
0.4097426222432934	0.8749202233877927	-0.5
-0.1632247178052869	1.278620458407775	-0.5
0.04743246963202016	1.286453818609012	-0.5
-0.231541528280812	1.4910965772961362	-0.5
0.22263458325373353	0.9624122866846649	-0.5
-0.02144129403287867	1.4886295969503074	-0.5
0.08255620386737483	1.408785470804136	-0.5
0.4875793178907197	1.428777542104915	-0.5
0.1871343110777849	1.274331096715458	-0.5
0.10153462911356503	0.9177886886538222	-0.5
0.3262599801495992	0.9416293029054161	-0.5
-0.3653948660748928	1.3756845863408267	-0.5
-0.12677147817018342	1.4784213834259177	-0.5
0.4796851826312388	0.7833696751767377	-0.5
0.3628021566684938	1.2721814682278647	-0.5
0.25367802709149745	0.5039378709721867	-0.5
0.15960139344797464	0.7890869741436985	-0.5
-0.21150477547313606	0.9556806668181415	-0.5
-0.3561194957254121	0.8515320654517622	-0.5
-0.36555628656145145	0.5506795546093711	-0.5
0.02480850114011557	0.6666426683121038	-0.5
-0.014420393971850604	0.5012925916678102	-0.5
-0.22821612160986693	1.2099149718901228	-0.5
-0.4663151351427529	0.9129763340850743	-0.5
-0.26615546638203447	0.765701051785594	-0.5
-0.3211699605966659	1.3143218645789472	-0.5
-0.38390138552900055	1.1211400651769046	-0.5
0.41751098273488985	0.5750100929966263	-0.5
-0.10668869424188987	1.0522246283577101	-0.5
0.04550694458797601	0.9214122083766025	-0.5
-0.1893991270128466	0.8562646304786242	-0.5
-0.4384734487064622	0.6214685728508245	-0.5
-0.05411800755957753	0.82491014565488	-0.5
-0.1852342955287761	0.5496694730555729	-0.5
0.25570763687777387	0.681431732462467	-0.5
-0.46389944206555134	1.3207523053546042	-0.5
-0.28399083205416853	0.6583384966754005	-0.5
-0.12039090346156395	0.7429335297352501	-0.5
0.11524821470910573	0.5365950479797373	-0.5
-0.4972274583417935	0.7497218211594541	-0.5
-0.3225824508230771	1.034005224049984	-0.5
-0.447368346967419	1.443627251729072	-0.5
-0.4079348763695386	1.233232933245485	-0.5
-0.10984117515347624	0.6279379808723147	-0.5
-0.48360395607433426	0.5079793314584661	-0.5
-0.46464237116300067	1.022836541507896	-0.5
-0.23302508741593453	1.0921318878384825	-0.5
-0.07126619919850759	0.9457906411481911	-0.5
-0.4868890642323698	1.1440974515983295	-0.5
-0.36454196354032264	0.7457991328644404	-0.5
0.16206158928469563	0.641379923343108	-0.5
0.31446778173842793	0.5968766950599732	-0.5
0.046431526592887434	0.7778076053909108	-0.5
0.48652134745086417	0.5000096248387793	-0.5
0.5	0.5928980808654181	0.06801693494770247
0.5	0.9059592908320355	0.18588518910829557
0.5	0.5048872296641649	0.008248991839959613
0.5	0.9176390262273106	0.3550287432905036
0.5	1.1624292615397736	0.3110413719052324
0.5	0.5136913420122124	-0.31301836054200205
0.5	0.7227293121747411	-0.05134660277279646
0.5	0.9147574882013721	0.023137675120251416
0.5	0.6832373589596168	-0.21541522022942275
0.5	0.6774797658380315	0.23523882911931815
0.5	1.090522556497655	0.4639076462701712
0.5	1.3312494843461589	0.367920968360127
0.5	0.6221634665844445	-0.36841965291033585
0.5	0.6844081340758691	0.11028978200006631
0.5	0.8505468148768898	-0.10508610973375576
0.5	0.5024036512588476	-0.10324688870363885
0.5	1.0300359131664143	0.13602899399787044
0.5	0.9229928789889661	0.4720159249172785
0.5	0.5167952153022509	0.17730904304763404
0.5	1.0176341333100356	0.32019501435179387
0.5	0.8247449109588086	0.43893567225188534
0.5	0.5620876825813366	-0.1942596913379372
0.5	0.5129941961320064	0.34778335345657496
0.5	1.1942200542754875	0.41671294085618316
0.5	0.6934905804158582	0.4508244974904779
0.5	0.7924526810585384	0.056474600996637814
0.5	1.0175465783877429	0.033809534137624886
0.5	0.8109664579478053	0.22326788536282582
0.5	0.5654563713548517	0.4443056336593604
0.49999999999999994	1.4255668404053012	0.487855413178574
0.5	1.129130042467309	0.1988124071416522
0.5	0.7173315977896609	0.34025396853512824
0.5	1.3198543319916296	0.4808514606142138
0.5	0.8200980757926598	0.3316655446731467
0.5	0.5228699854308195	-0.4684236515821113
0.5	1.2272879983747387	0.23203100818610592
0.5	0.6123531933121016	-0.06336509099612397
0.5	1.476050254299658	-0.2589799916205848
0.5	1.146468671404759	-0.46307800792648746
0.5	1.0555343179732228	0.008681558130326096
0.5	1.3566725831922826	-0.3627564394440901
0.5	1.3803670097371914	0.25958156040893077
0.5	1.1672962385281012	0.046106951182903505
0.5	1.4036561927178663	-0.05355312913801791
0.5	1.0417467725232548	-0.27084331972439635
0.5	1.0701089814826832	-0.15907903217714514
0.5	1.4983483629081886	0.23664657302051664
0.5	1.4905445456481545	-0.4194014950361984
0.5	1.0200517859734899	-0.4342221670667754
0.5	1.2195248702312274	-0.15043618730437414
0.5	1.2553202114296256	-0.39410323714897433
0.5	1.3393659377543503	0.028630645422229567
0.5	1.1283706925111598	-0.33282205120530994
0.5	0.9219004006168728	-0.39088355181191337
0.5	0.7288704795148647	-0.4994139579134752
0.5	1.333700451024108	-0.49578354472301
0.5	0.6135664265427336	-0.46314095249821285
0.5	0.7683808488606096	-0.3330591771554855
0.5	1.3232650108094883	-0.1512951108122751
0.5	1.289152486613046	-0.24911690036267675
0.5	1.4872441820747448	0.03945547209485009
0.5	1.4070455424863966	0.12497720383267716
0.5	0.9130208502715781	-0.25590704551531396
0.5	1.2484393815051604	0.20843702065461664
0.5	0.9904507782999438	-0.0983999863478173
0.5	0.7989589126446128	-0.22797049505020553
0.49999999999999994	1.4749480145470453	0.3560324080568677
0.5	0.8757228654582565	-0.14147648016793157
0.5	1.4589017041206693	-0.14747219416745685
0.5	0.639419515639285	-0.36339506392092735
0.5	1.216821075511495	-0.04119512306952344
0.5	1.1502267691805872	-0.22376168389205797
0.5	0.8982144707077876	-0.49908591973224004
0.5	1.4874977498672026	0.48425612376472144
0.49999999999999994	1.284490829571296	0.11294251976803896
-0.024005935699240255	1.5	-0.06303346369880058
0.1552704793442415	1.5	-0.4101728743720583
-0.41732851550461647	1.5000000000000002	0.39134022016486303
-0.3726936969597162	1.5	-0.4060166714796344
0.006959680089871106	1.5	-0.25825159943019027
-0.407928631058895	1.5	0.16865396384991183
-0.3436050546929734	1.5	-0.11727034251187257
-0.4218382044736899	1.5000000000000002	-0.264486435162693
-0.17417239478604263	1.4999999999999998	-0.47063930755947747
0.1316864106816378	1.5	-0.17835889832239274
-0.2617763767507072	1.5	0.22293134727880592
-0.17167726644800996	1.5	-0.08758387901114773
-0.14587310478018112	1.5	-0.20401858536912598
-0.08877770949737962	1.5	0.039306942839940295
0.2015554767447244	1.5	-0.30341572828518715
-0.32560824839047553	1.5	0.3083801916908643
0.027300425398737532	1.5	-0.4347504091755061
-0.491231162683487	1.5	0.06412806381916612
-0.36778759656428645	1.5	-0.008803555553321976
-0.4781417167572387	1.5	0.29121198717688757
-0.26532174962775623	1.5	0.0029651532550346443
0.38045091577779266	1.5	-0.45061061552698833
-0.2809378202692735	1.5000000000000002	-0.3547161489609778
-0.1455783786303162	1.5	-0.31364858552453256
0.27333579901869776	1.5	-0.4700274112006455
-0.441492446874138	1.5	-0.09677642254301887
-0.49455090555745557	1.5	-0.19234323635648648
-0.48613297857249615	1.5000000000000002	-0.43795091718617796
-0.2894686237323033	1.5	0.11226065682765263
-0.0475293523247424	1.5	-0.17204132312228443
