# .PCD v.7 - Point Cloud Data file format
VERSION .7
FIELDS x y z
SIZE 4 4 4
TYPE F F F
COUNT 1 1 1
WIDTH 1065
HEIGHT 1
DATA ascii
0.10831842277761161	0.951971113497451	0.5
0.2725305578545056	0.94003091803902	0.5
0.42732614727819485	1.334406467626542	0.5
0.02458536996697111	1.258982475226234	0.5
-0.2394406914399232	1.4005929177513092	0.5
-0.11827566720055405	1.3529072600168883	0.5
-0.3647108178052604	1.4558763126126335	0.5
-0.2120800251855891	1.2979443036073117	0.5
0.44145866535023953	0.6577817394175003	0.49999999999999994
0.39410185593642355	0.8838339631661641	0.5
0.4463972778107038	1.199774294545524	0.5
0.2739104037328216	1.3443822150636766	0.5
0.4045930137137512	1.4843114038879657	0.5
0.4873497299223932	1.075318367142809	0.5
0.16341528368619684	1.3379281625213366	0.5
-0.13105619144515632	1.4581286538809897	0.5
-0.4770024358319451	1.478275221220673	0.5
-0.33593950603728595	1.358883476920756	0.5
0.23700425762642688	1.2213809449311277	0.5
0.2981789077060103	1.4568208730344478	0.5
0.49289581770642493	0.8613235966638518	0.49999999999999994
0.19956165619936464	0.8293495304203686	0.5
0.46621144791346913	0.965623804104938	0.5
-0.10665219858066868	1.1099193314347255	0.5
-0.2727629178724328	1.4982355745700278	0.5
0.19858270183952229	1.0199841137388894	0.5
0.45026530736408166	0.7682240676467301	0.5
0.03000096460486104	1.0163216818972005	0.5
0.4942690742300835	1.4313894489796004	0.5
0.12966195075117712	1.235580968294002	0.5
-0.21122167686186927	0.8471886686419127	0.5
0.13051234179911816	0.5279906835520243	0.5
-0.29077672321427095	0.6432098118375944	0.5
-0.3741554474538549	1.0126194226820195	0.5
0.028784132115599388	0.5736479779157363	0.5
-0.3995296625498226	1.3247019066322143	0.5
0.22737226219663095	0.5541659755165903	0.5
-0.26082086222819434	1.2503980501669314	0.5
-0.39806975563531344	0.9008821146466969	0.5
-0.11940494211468627	0.7536627197815985	0.5
-0.33669345689083874	1.1155105866464925	0.5
0.13405412004933315	0.6706189140760481	0.5
-0.4780992841532883	0.8363061928851091	0.5
-0.08964639871958424	0.9696200638744606	0.5
0.0007860296332029837	0.8905540411085193	0.5
-0.1208700155137109	1.0830452704153517	0.5
-0.4185862396198896	0.7241215896559275	0.5
-0.0995733632656324	0.566919951541614	0.5
-0.1554118604215321	0.6552150130515136	0.5
0.3567185304147503	0.5142012394994993	0.5
-0.4028274028667126	1.2077319457501454	0.5
-0.25851676749797303	0.9506709774513963	0.5
-0.4523275557221917	0.5407669043206799	0.49999999999999994
-0.011375935576631913	0.7572082944697153	0.5
-0.48508000547758234	1.111009377225134	0.5
-0.2308106067297252	1.0898171802913774	0.5
-0.3036725999912034	0.7589020403494243	0.5
-0.4877783942072133	0.9924163535471688	0.5
-0.34403831244610145	0.5161629649472421	0.5
0.15764852082050443	0.7779469419951875	0.5
0.24220231662724281	0.6788744323056497	0.5
-0.4910138455181777	1.4590206622903206	0.5
0.4623067534202647	0.5226146634678362	0.5
-0.18268904846336345	0.5007593851830104	0.5
0.3279900519876733	0.6228643703230912	0.5
-0.39148209344349116	0.6213213947767656	0.5
-0.4903757651895114	1.2560869775890124	0.5
-1.5	0.1409355697224054	-0.12318089742521687
-1.5	0.15713503551680222	0.08875048818225342
-1.5	0.27873922723732925	-0.19089581108467746
-1.5	0.2882951799881466	-0.4387118747070454
-1.5	-0.13810741823997422	-0.22618616427915691
-1.5	0.05128481655326311	-0.06750102309155126
-1.5	-0.2081111085133528	-0.36742339358226284
-1.4999999999999998	0.18129002761955473	-0.3425783149527192
-1.4999999999999998	0.4999846983823058	0.3879147094515006
-1.5	0.36486491129112375	0.2834902620964944
-1.5	0.46983432306462525	-0.39961821561736055
-1.5	0.4150047012759801	-0.19769228806230743
-1.5	0.4882610716007807	0.0027722006586989954
-1.5000000000000002	0.23156340071724546	-0.011239896250498815
-1.5	-0.0007199399779880267	-0.2504735591353193
-1.5	-0.0024978783530187343	-0.44174982801191
-1.5	0.287311716090938	0.11504580644895801
-1.5	-0.04945186030191695	-0.11054487780277855
-1.5	0.14407302631913288	-0.22763292569214855
-1.5	0.49180351709064996	-0.1303653716321899
-1.5	0.34775160276109784	-0.06805127332891292
-1.5	-0.442562677576674	-0.4984022274492025
-1.5	-0.3111595091916053	-0.40295590931954994
-1.5	-0.11048045520046812	-0.39367795725015575
-1.5	0.3696466225416414	-0.4978524138614915
-1.5	-0.22978416220450182	-0.26848156714738425
-1.5	0.060867602344575444	-0.3583860283945337
-1.5	0.3920323619031105	0.05989215734900368
-1.5	0.3345369227584861	-0.32921789599299167
-1.5	0.4398290249751966	-0.3027495356108034
-1.5	0.4271474692054773	0.20337597397218954
-1.5	0.26065143954517567	0.25989822370446813
-1.5	-0.23433699478780426	-0.4977909770203166
-1.5	0.14843578039975916	-0.4941938918157752
-1.5	0.3945277022061259	0.3844791049509777
-1.5	0.041254797502548846	0.03660905140434895
-1.5	-0.09130304032095385	-0.49956637729011044
-1.5	0.4855036380298667	0.10368575105763189
-1.5	0.4969935425384603	-0.49598583433936516
-1.5	0.18978135577806166	0.4516493599736279
-1.4999999999999998	-0.48991202238564513	-0.23620220938900596
-1.5	-0.06096782895471932	0.11733762115911735
-1.5	-0.11189994855713226	0.4458035007992631
-1.5	-0.3579192670349526	0.1972280295878336
-1.5	-0.4390237959076614	0.08397290790713138
-1.5000000000000002	0.30542185793814824	0.38412515275048453
-1.4999999999999998	-0.43130419158090383	-0.3836638229873396
-1.5	-0.3172949137536931	0.36360925331875227
-1.5	-0.09476188475861833	-0.07952449040751922
-1.5	-0.36587578890786754	-0.22743124274085635
-1.5	-0.18628193915389057	0.16087769925100148
-1.5	-0.43764733482666107	0.2609310458448487
-1.5	-0.03079059996421843	0.38194375857931473
-1.5	0.11023935293460063	0.31032553733487944
-1.5	-0.2169764081839729	0.026209096746912797
-1.5	-0.008655340183768151	0.28421971715341265
-1.5	-0.20497970218186556	0.28605453483899945
-1.5	0.4068828487082464	0.4415084415392866
-1.5	-0.38523040172401657	-0.04903965003269595
-1.5	-0.21811124882011923	0.43990414307653536
-1.5	-0.4692631881117594	0.37730207715040653
-1.5	0.035286611644768096	0.48080811422153324
-1.5	0.1567839793173208	0.20244783424332985
-1.5	-0.34079105892905714	-0.3282419206405802
-1.5	-0.4187414632746278	0.46660571530784034
-1.5	-0.250143622329394	-0.09870174333472612
-1.5	-0.25390575915060454	-0.2447752079202299
-1.5	-0.0006593020516538674	0.024849482075033895
-1.4999999999999998	0.03710762689134517	0.18183787550695957
-1.5	0.24391510722947074	0.3005546800298149
-1.5	-0.3013295946321588	0.10423528437151253
-1.5	-0.49373003824754125	-0.05736029422954059
-1.5	-0.4274457169382443	-0.14057062954397315
-1.5	-0.11828917353088031	0.23461558863691778
-1.5	-0.10177018447063145	0.024503624278295597
-1.5	-0.1733599878144567	-0.17205715089321652
-0.5920332998263692	-0.5	0.02357744606750435
-1.3658542979234098	-0.5	0.4497009283118988
-0.7974781680449765	-0.5	-0.11244377011420689
-0.5002389634920396	-0.49999999999999994	-0.16286410546702468
-0.8559085953645562	-0.5	0.4995174839925318
-0.9729689781595596	-0.5	0.32304463808558503
-0.9262050490232835	-0.5	0.2161202219430095
-0.7485805248714271	-0.5	0.39018095272571396
-1.0610609442284988	-0.5	0.11638500303497948
-0.6109865137493682	-0.5	0.16829901130008618
-0.6368682354175489	-0.5	0.39672769080272696
-0.9529615814657089	-0.5	-0.0330629720792264
-1.1799901650848637	-0.5	0.27372693394021563
-0.8021554785185552	-0.5	0.1183710205277656
-0.6201987555862134	-0.5	0.49753420103338364
-0.6265260632342239	-0.5	-0.1856604877139989
-0.5845115627221021	-0.5	0.2958474779900768
-0.7487933834041094	-0.49999999999999994	-0.24586671455647952
-0.8573522201925435	-0.5	0.32024568274494447
-0.5340882677838295	-0.5	-0.39412930558346915
-0.6783454355015014	-0.5	0.24463031158680137
-0.5687170437676263	-0.49999999999999994	-0.08711763936978592
-1.078500554287542	-0.5	0.22673070851995614
-0.5938893828265732	-0.5	-0.2863917431334919
-1.1916145599002421	-0.5	0.3847726568011054
-1.2994155981988937	-0.5	0.32266062283762864
-0.502080379337228	-0.5	0.4253366869367424
-0.5091986074229637	-0.5	0.16458920239876743
-0.8066513183280065	-0.5	0.00578565238586326
-1.0388751859401197	-0.5	0.46937727194599455
-1.2345533937359656	-0.5	0.4851693574334317
-0.8008047825700338	-0.5	0.21841584504259381
-0.6902175313702683	-0.5	0.058615624957950696
-0.9066145018574366	-0.5	0.10513691778113543
-0.7493337711834298	-0.5	0.49927565610925406
-0.6713973842976962	-0.5	-0.08891136642831761
-1.480302831528657	-0.5	0.4865621687243118
-1.138695379394675	-0.5	-0.4304561535894802
-1.0039612663411759	-0.5	-0.06207335099482569
-1.3680455588115976	-0.5	-0.3711004894150388
-1.1745499294257618	-0.5	-0.22261907590652602
-1.1255844860834545	-0.5	0.006139821358585033
-0.9188016427779213	-0.5	-0.13867092298426809
-1.2672229398784383	-0.5	-0.13813259554540985
-1.2471469524956333	-0.5	-0.009478915039324354
-1.2968697816907844	-0.5	0.18715888519121604
-1.42741219500745	-0.5	0.17468743331700853
-1.466087317695671	-0.5	-0.078328118627635
-1.2680698805784882	-0.5	-0.2739363104357363
-1.0509011191109192	-0.5	-0.15227963066133532
-0.772250310002309	-0.5	-0.4815299166940268
-1.4333653612106139	-0.5	-0.1957042056590134
-1.4551564190485324	-0.5	0.044525278892851294
-0.7777290126983937	-0.5	-0.2479971005519554
-1.2913931360578872	-0.5	0.08468194389718664
-1.4501065520271212	-0.5	0.2962988452438612
-0.9560161407674371	-0.5	-0.35139902590486527
-1.2663909345596236	-0.5	-0.4472870019112769
-1.3490533527853565	-0.5	0.31970887339829945
-1.150865220089258	-0.5	0.13726210761088564
-0.8349834839639442	-0.5	-0.34870590010614644
-0.6743929130133074	-0.5	-0.40699689811375583
-1.0616803762919886	-0.5	-0.3267260015371976
-0.969783168278352	-0.5	-0.48244298083450354
-1.4797616049756348	-0.5	0.43194425671612546
-1.4763300067522225	-0.5	-0.29197507221982444
-1.1363281045625349	-0.5	-0.09429756283633306
-1.463387939307323	-0.5	-0.48106782605348386
-0.551902164793545	-0.5	-0.49883061304288
-0.8932982917276546	-0.5	-0.2644219880834475
-1.361289990401359	-0.5	-0.01691855681456772
-1.1846840822190208	-0.5	-0.33530259668021734
-0.8706334940336062	-0.5	-0.4522560706572416
-0.5410109585256742	-0.07750309607304215	-0.5
-0.5045382051405893	0.10527263979303196	-0.49999999999999994
-0.7297230621637164	0.259137541755463	-0.5
-0.949137968109169	-0.1568712187620429	-0.5
-0.6854430077773116	-0.3362574628088769	-0.5
-0.8738082835977935	-0.22322716276019094	-0.5
-0.6378257688759467	0.1416244456328253	-0.5
-0.5374494032218285	-0.22253950506529654	-0.5
-0.6782635371361307	-0.4797144191323728	-0.5
-1.0812700922266671	-0.3176946912909946	-0.5
-0.857152244603849	-0.05757013245003549	-0.5
-1.3072088636379215	-0.3309753868448524	-0.5
-0.6364285757226463	0.31647644288469756	-0.5
-0.991977162721819	-0.3650536478702282	-0.5
-1.1283919377549332	-0.20377515988536385	-0.5
-0.7664973618996725	0.04642971171308943	-0.5
-0.654399481011271	-0.151240648931238	-0.5
-0.5684810008367946	-0.47394141596886086	-0.5
-0.8550408030324325	-0.33746761315321805	-0.5
-1.187591485286372	-0.35553693532150865	-0.5
-0.543129385658825	0.24738111540699315	-0.5
-0.7500440726493094	-0.07041442838217504	-0.5
-1.3137081168027205	-0.4399104066066851	-0.5
-0.926526952802915	0.016623314857424187	-0.5
-0.7826845935837479	0.1530493485834861	-0.5
-0.5921336337433761	0.049735582202044645	-0.5
-0.7207178571520527	-0.2324100601043655	-0.5
-0.7729474352203948	-0.4303825479824379	-0.5
-1.451809347151624	-0.4612866512045165	-0.5
-0.5177719267269524	0.41640578774054215	-0.5
-0.6530573611752878	-0.04227127131540476	-0.5
-1.0525287812268596	-0.09010704469418904	-0.5
-0.5627538549666451	-0.3633917221603612	-0.5
-0.8951140596519802	-0.4350955830336497	-0.5
-1.0595450980858596	-0.4415067488739056	-0.5
-1.206382709437537	-0.4713734289438105	-0.5
-1.029022996795267	-0.22023294979455235	-0.5
-1.468219565707067	0.08489269382865794	-0.5
-1.3671080503278066	0.38775894657303295	-0.49999999999999994
-0.8544143751259524	0.4453330560819432	-0.5
-1.4714495722394214	-0.43558617807482714	-0.5
-0.9896565219584731	0.4796875515166914	-0.5
-1.195501031400791	0.04972568989961501	-0.5
-1.4923603772480738	-0.27672981689940657	-0.5
-1.2011193965331388	0.4852442754552457	-0.5
-0.6472871430688752	0.47352001384016584	-0.5
-1.029844623503542	0.22703803541266773	-0.5
-1.177667183679366	0.3759258366501663	-0.5
-1.1960972746203467	-0.11467432532442387	-0.5
-1.1483338654981783	0.19975869753109532	-0.5
-0.8302655615119723	0.3257726865933609	-0.5
-1.4169985869796724	-0.08430630198375189	-0.5
-1.369915920584608	0.06188531536346875	-0.5
-1.021395069059696	0.07463432760908154	-0.5
-0.7467689567752638	0.4951912121959391	-0.5
-1.2449785222925231	0.14348605639308934	-0.5
-1.4387964515651832	0.3030335480104832	-0.5
-0.9568426342950382	0.36479181454266607	-0.5
-0.6777811177377998	0.331701941712646	-0.5
-1.322568158728204	-0.23313383158963996	-0.5
-1.3922129042465687	0.21000488554060293	-0.5
-1.4806756115570692	0.46816185111189934	-0.5
-1.4091138615944947	-0.35033729708179495	-0.5
-0.9137745373000201	0.11083041197396726	-0.5
-1.0663303976095786	0.38584274302079413	-0.5
-1.2550464283627363	0.30492494451496954	-0.5
-1.3485860531462068	0.4868951041065266	-0.5
-1.3166876765562359	-0.07147217759307023	-0.5
-0.8806289534764506	0.22523007607936432	-0.5
-1.098629510685582	0.494612138425109	-0.5
-0.5428319049767282	0.4946871989094187	-0.5
-1.097566471820074	-0.06170503089016399	-0.5
-1.4998511505118937	-0.17666581704249018	-0.5
-0.5782441500171658	0.5	0.04233985097198378
-0.5469370955529661	0.5	-0.48078634617773275
-0.7601282201997638	0.5	-0.2670480233643683
-0.8086257140511077	0.5	-0.09153809807956725
-0.6151457555649471	0.5	-0.3013705936129286
-0.5059531747898405	0.5	0.2954945074183266
-1.085450111747061	0.5	-0.40262630353532247
-0.6008475279776032	0.5	-0.15390058606516643
-0.5250747612411297	0.5	0.4121697992783726
-0.9313489968998537	0.5	-0.1857135554342137
-0.7342408424596758	0.5	0.010588189445213808
-0.7180793162611044	0.5	-0.36743775770484477
-0.6053632161732981	0.5	0.22668969116854024
-1.47331516735254	0.5	-0.48974148268524853
-0.8502152623418	0.5	-0.4527882093670965
-1.0288378210743614	0.5	-0.2908714246188904
-0.6932696520091153	0.5	-0.09615252402338514
-0.862530068156393	0.5	0.001699434869486302
-1.12075844707941	0.5	-0.14886649888580977
-0.9966595879153857	0.49999999999999994	-0.08243517023759421
-1.3239625026910997	0.5	-0.3394135733839141
-0.720333007169147	0.5	0.25907699036978704
-0.9518403194202234	0.5	-0.41135480488130494
-0.5151714277669546	0.5	-0.23015210914702777
-1.1464219755379574	0.5	-0.28204657879954664
-0.7440039900695792	0.5	0.15223215531425868
-0.5227345528495402	0.5	-0.349487763248007
-0.5078529842139284	0.5	0.19386753325489067
-1.304980334686126	0.5	-0.47801403712135826
-1.1597279446760642	0.49999999999999994	-0.4774276068409991
-0.6267857819007562	0.5	0.34340331476092867
-0.6314971341842233	0.5	-0.42524923946166737
-1.0131739327679268	0.5	-0.4912368746666962
-0.8513669148460601	0.5	0.12879181705499132
-1.2250603303918661	0.5	-0.35428863150719014
-0.5094960375825951	0.5	-0.04643607631514177
-0.7598114169644808	0.5	-0.49641321222201074
-0.8393872543190226	0.5	-0.33337419651761474
-1.2945549908624905	0.5	0.21869160463415838
-0.8638579024256549	0.5	0.25100144504589694
-1.0594799959888745	0.5	0.4537686531883043
-1.403914021652378	0.5	0.3652235198586904
-1.4290245687551097	0.5	-0.1824047507904506
-0.7040568579238831	0.5	0.3164706003082555
-1.3154774772661164	0.5	0.4159898850824445
-1.314238349744632	0.5	-0.18964225484626318
-1.493581305913521	0.5	0.0573002383710316
-0.9592491414456454	0.5	0.1468812794943115
-1.4823701073453421	0.5	0.4521776995034148
-1.3704273875561055	0.5	0.12411656221323925
-1.2398249172965567	0.5	0.04291310079521532
-1.4065085028763762	0.5	-0.0835652766160363
-1.1326882340319193	0.5	0.3465507387498133
-0.8021885505013364	0.5	0.45791193885299875
-1.3104922218540616	0.5	-0.05272266531923028
-1.4463342253181701	0.5	-0.38662688900819486
-1.3151918310522255	0.5	-0.30392793260813045
-0.6844691950594323	0.5	0.44316970500243424
-1.0546690213377272	0.5	0.21840506131842352
-1.0836352614509752	0.5	0.006183221700199984
-1.4611432563391948	0.5	-0.2808321947306488
-1.1752935031332585	0.5	0.44374840007405103
-1.4995238721228583	0.5	0.27008546126801625
-1.1266864429774661	0.5	-0.0898911964074498
-0.901526238133443	0.5	0.3927314972467112
-1.1388698364031085	0.5	0.15687565581219332
-0.5812411380685728	0.5	0.4897785437751959
-1.4873015309233724	0.5	0.1608705569276575
-1.2283218915918401	0.5	0.29569523225168526
-0.9518205801387744	0.5	0.49141558139400987
-1.2310349747401608	0.5	-0.12197391140202607
-0.7986052446325271	0.5	0.3512129285978297
-1.0042750150466264	0.5	0.3341872723806024
-0.9640146197093332	0.5	0.042765866225111124
-1.2353720661637138	-0.47364823274372053	0.5
-1.1012985252268361	-0.09913052049709778	0.5
-1.3773153119934067	-0.13890618229991378	0.5
-0.8367362839239691	-0.21892156806169474	0.5
-1.1843901309579314	-0.17607545920595258	0.5
-0.6643304682723866	-0.4315368026938493	0.5
-1.3376209532629126	-0.401640745705583	0.49999999999999994
-1.1697562548317388	0.11189625513812715	0.5
-0.8916611544169277	-0.3183862517772229	0.5
-1.4388918616774369	-0.026922497033625897	0.5
-1.4556361325372373	-0.3968631265373247	0.5
-1.4120937544485717	0.22161313977706842	0.5
-1.149857302387061	-0.33410841676275127	0.5
-1.3094412542952245	-0.01249494273946783	0.5
-0.8193174427936973	-0.42329246279527555	0.5
-1.1031291867436237	0.03265270724297284	0.5
-1.0456255089732587	-0.1938129194179773	0.5
-1.3557723478357202	-0.24473649442109768	0.5
-1.0195107256118392	-0.457389115192818	0.5
-1.381259856866885	0.3583144401354489	0.5
-1.300319195923746	0.20191739893418173	0.5
-0.6913685267983347	-0.3125041076010645	0.5
-1.3421530143429343	0.09679291042257362	0.5
-1.4722888039673487	-0.2759775701213445	0.5
-1.4681866899967346	0.10932722586349741	0.5
-1.4877089875456873	0.37782159198078	0.5
-1.0046648494196992	0.0025790775925484954	0.5
-1.4982340321531002	-0.15290194279679645	0.5
-1.4756940219215773	-0.4995031364071829	0.5
-0.975639836386932	-0.0931547547860063	0.5
-1.1260565339064743	-0.43515780432620105	0.49999999999999994
-0.9156610691586885	-0.46681733576986306	0.5
-0.5352293932006171	-0.47296099985180373	0.5
-1.2422024506044136	-0.27381311005217857	0.5
-1.2554776387802775	-0.10297688491011037	0.5
-0.945996459793843	-0.219146851714201	0.5
-1.0383486338661714	-0.3431723530746843	0.5
-0.8803076830320111	-0.06766149267138125	0.5
-1.0389527821762623	0.3538106611073022	0.5
-0.949486399223749	0.21535209590694965	0.5
-0.5140033019932836	0.48649425555876746	0.5
-1.0191735916600257	0.05336152550931866	0.49999999999999994
-0.9493467867333958	0.4388814535221314	0.5
-1.139522032696429	0.4350498192911597	0.5
-0.7725880611840783	-0.08377000445389425	0.5
-0.7662766245539325	0.2927645092734795	0.5
-0.8788942101251591	0.06000344753969533	0.5
-1.0845140021335167	0.2431937681228502	0.5
-1.2478633162068054	0.3125257660191191	0.5
-0.6699559272965614	0.14980146352987772	0.5
-1.3041201806979636	0.42428716195128613	0.5
-0.7791029346653977	-0.18543692079169327	0.5
-0.5727765747795467	-0.2187857653618177	0.5
-0.5803076934103957	0.019507214319246124	0.5
-0.7585765370481772	0.46822602384567924	0.5
-0.6193904860873244	0.379916772739359	0.5
-0.5515672303603918	0.1932264475239047	0.5
-0.5464132222453286	-0.10020636485675227	0.5
-0.7946632434022163	0.15203867484072076	0.5
-0.5100927731034898	-0.30251999104008453	0.5
-1.3962724996884213	0.49536736110290647	0.5
-0.8524818361244144	0.3829560913190697	0.5
-1.1427256212235204	0.14856007580608763	0.5
-0.561543501179824	-0.41329090079943853	0.5
-0.7094258293000048	-0.2712818025696644	0.5
-0.7527156532759192	0.04931964799033012	0.5
-0.5280749400069216	0.2931898302362652	0.5
-0.6753127965345422	-0.1563200794889532	0.5
-1.0520802220098597	0.496124893004597	0.5
-0.9324337347651785	0.3173370882555997	0.5
-0.6296078427734318	0.2566961928670487	0.5
-0.6587201333962923	0.49373042854310334	0.5
-0.8585238800330897	0.48774226289013545	0.5
-0.49999999999999994	0.7309895404835539	-0.7714428600164877
-0.5	0.6122597782923476	-0.569974363317089
-0.5	0.6743759268048705	-1.295487635242585
-0.5	0.6477705176640355	-1.1220906619123439
-0.5	0.7642534767786094	-0.5982453626824228
-0.5	1.0690543228823641	-0.5571655458297621
-0.5	0.7689568466984317	-0.939993128728939
-0.5	1.1459729192574626	-0.6451951648963024
-0.5	0.5416596144130137	-0.6730661272712434
-0.5	0.500667939667401	-1.053891759268003
-0.5	0.9784928599599224	-0.6050785342102818
-0.5	0.5693886194441203	-0.9617484442049419
-0.5	1.2252593046214317	-0.763895528152255
-0.5	0.7601061290699851	-1.212302229161454
-0.5	0.8782162987294687	-1.0255916551273192
-0.5	0.9277596415753527	-0.904961859414065
-0.5	0.9890786487179094	-1.0055363974810363
-0.5	1.0022328554973496	-0.7219956194833217
-0.5	0.5031425817112045	-0.8445702494056677
-0.5	0.6485020557149579	-0.885020961243899
-0.5	0.8799798956215047	-0.7391761224648293
-0.5	0.5161014415619284	-1.4460604046482974
-0.5	0.5021971181386453	-0.521994969680365
-0.5	0.6131757029056137	-0.7717265436602769
-0.5	0.8428715838497935	-0.8443648397585684
-0.5	1.3045130501089455	-0.5566233989891335
-0.5	0.9014758743732347	-0.5181907705263438
-0.5	1.2014983039746359	-0.5308310658584358
-0.5	1.1146921702092012	-0.7576648786365394
-0.5	1.313223474438506	-0.6777249966019033
-0.5	0.810716732831399	-1.1037760242810315
-0.5	0.5021979463699388	-1.3036367176292234
-0.5	1.4031443629927278	-0.5156182684266605
-0.49999999999999994	0.5510262125799622	-1.1673202016524582
-0.5	0.679043336560321	-0.6764812292015264
-0.5	1.042239483710513	-0.8889077183515697
-0.5	0.6781100409813915	-1.0086993364137444
-0.5	0.8645412093207264	-0.6373383000305056
-0.5	0.5952629907299053	-1.3572103326311922
-0.5	1.1407864617409331	-0.8591703083067603
-0.5	1.3209654809277043	-1.1747826086806428
-0.5	1.197161882498688	-0.9136503419631294
-0.5	1.1026384965550902	-1.2447734003345374
-0.5	1.2859260248116036	-0.8603852683877045
-0.5	1.4586198782256565	-0.6797697192132063
-0.5	1.433184310072853	-1.4223369450810952
-0.5	0.9708154723608772	-1.1643635785477893
-0.5	1.2079821826756072	-1.3464016318341747
-0.5	0.8651774985284962	-1.2362719332141345
-0.5	1.4561456863533722	-1.0216093966866395
-0.5	1.3129514932384294	-1.0173378242242808
-0.5	1.1684416920815768	-1.1442687009648784
-0.5	0.9702293274472854	-1.309011550072096
-0.5	1.4298185014287976	-0.903958551563634
-0.5	1.0458180783915527	-1.0888706039750908
-0.5	0.7348827598348826	-1.3225193050220712
-0.5	1.4835108942280069	-1.248328895353495
-0.5	1.445906353971292	-0.5602834399031388
-0.5	1.395117048845804	-0.7915349632911561
-0.5	1.3146329041970928	-1.4268939651805006
-0.5	1.0328769825816209	-1.4054383685956846
-0.5	1.047196261835759	-0.9622015799661351
-0.5	1.4517922081859065	-1.1222244647910231
-0.5	1.4971543328984391	-0.7903614380374261
-0.5	1.1658152797302779	-1.4784736158974052
-0.5	0.7174707558134634	-1.4574040243448734
-0.5	1.350382524110144	-0.6523406967147972
-0.5	0.610395482535062	-1.4451814467146775
-0.5	0.8300103145673382	-1.4030751449966923
-0.5	0.9438299637594686	-1.4551337480264068
-0.5	1.2674772394175697	-0.7352975846777428
-0.5	1.1440541371774056	-1.0126972091401005
-0.5	1.224424519700198	-1.242648120874398
-0.5	1.3668424120969216	-1.2658949220791682
-0.49999999999999994	0.9426832487487731	-1.057800636891404
-0.5	0.5203297279965325	-1.4983295172585915
0.4332764233439609	0.5	-1.4852320442652485
0.189520340988454	0.5	-1.2665526549067379
0.4438350978176966	0.5	-0.8794251408100879
-0.07931169332663168	0.5	-1.1351477944070498
0.4009284782424165	0.5	-1.2951697124847779
0.27168501254367994	0.5	-1.4614087752730864
-0.004553470401955334	0.5	-1.4285563041810292
0.49821458688921705	0.5	-1.2032957086496578
-0.06641350179291483	0.5	-1.2583464567278155
0.2894124192008648	0.5	-0.8908624192829147
0.1128833950803102	0.5	-1.3774631189573374
0.48180360239363135	0.5	-0.5194961890840937
-0.23540484002509818	0.5	-1.2768301389218601
0.03728568466603893	0.5	-1.2432308276983688
0.23445163171990757	0.5	-0.7699924616644153
0.39093027463621155	0.5	-0.7192222703029754
0.29186072726526857	0.5	-1.2400688309947485
0.31986196869286365	0.5	-1.0039559516052499
-0.3609780362979389	0.5	-1.434645461191423
0.446004291963938	0.5	-1.1085637390677312
-0.24346457376806852	0.5	-1.4469031575025124
0.47162225328571683	0.5	-0.9934105454679312
0.14931007984741662	0.5	-0.9618622479640057
0.0666172509913745	0.5	-1.0413704203358694
0.13892395941693175	0.5	-1.1204066644761532
0.3409009331863321	0.5	-1.1215989894832603
0.4692110703447883	0.5	-0.6484843187001866
-0.13522818893429236	0.5	-1.407871564185875
0.2405365814239246	0.5	-1.0908257933587917
-0.47004961775498233	0.5	-1.492041147373985
0.14436250733798014	0.5	-1.4937250448241985
0.1585574342783161	0.5	-0.8537601890073092
0.34649696428880006	0.5	-1.382634968709636
0.4892427669131427	0.5	-1.4017108367750795
-0.035019622094104835	0.5	-1.036473872006211
0.03208575223714999	0.5	-1.1396464611303314
-0.16613732777393264	0.5	-1.2005194164263904
0.4990388397398784	0.5	-0.7897242875883146
-0.4400333970693743	0.5	-1.3458352609826378
-0.18674402972299825	0.5	-1.0684113068108465
-0.4764201414569179	0.5	-0.8496387644431447
-0.3168916999391884	0.5	-0.8812552015927826
-0.2898693786561414	0.5	-1.0358883463919057
-0.1481952219885723	0.5	-0.5930898325212508
0.1107910882743807	0.5	-0.8236043579077746
-0.4484846291604143	0.5	-1.0633319554925298
-0.37803032915113444	0.5	-0.5328803703201515
-0.498300353433052	0.5	-0.9690261249557632
-0.297569992295267	0.5	-1.2435762637719752
0.10674374140332743	0.5	-0.505255343155684
-0.11964523254393424	0.5	-0.9292103084841721
0.45145875948872183	0.5	-0.5437164743981164
0.3615259066857335	0.5	-0.6312221080327769
-0.04196768293705666	0.5	-0.7369784909385015
-0.24752661223197528	0.5	-0.6736311163623414
0.032713584203414865	0.5	-0.9376721546433607
0.24136986430928042	0.5	-0.5984405676602339
0.2101679528590089	0.5	-0.7150698410601309
0.04469547120733919	0.5	-0.6593312816511768
-0.21881823222582358	0.5	-0.9609547799215881
-0.07492736909385872	0.5	-1.063658966350236
-0.04078291205826984	0.5	-0.5947242809077518
-0.34351774192373874	0.5	-0.6317214279117619
-0.48603077739090983	0.5	-1.1642046782123168
-0.26255149492796237	0.5	-0.5363598658088907
-0.1498827256967621	0.5	-0.8177628225150129
-0.4040474542542922	0.5	-0.7337711198823715
-0.09099748628888535	0.5	-0.5070997934140401
-0.4966965249704244	0.5	-1.4382540895055471
-0.3078031330670511	0.5	-0.7656697070682259
-0.14370880363506044	0.5	-0.7106853233167482
-0.4922009304797388	0.5	-0.610651291407527
-0.3973784433126202	0.5	-1.2187116513863798
-0.38837097752819144	0.5	-0.9630151346808489
0.21221934031653047	0.5	-0.5005879461489423
-0.2033757540143113	0.5	-1.1843090391083926
-0.012369960882098352	0.5	-0.8360118387880224
-0.48352225347408684	0.5	-0.5099598324273859
0.3344764430691033	0.5	-0.5106794029846613
-0.4238333562919538	1.235923458264526	-1.4999999999999998
-0.295273045532244	1.3887675838140687	-1.5000000000000002
-0.23857396755938065	0.8787110525194726	-1.5
0.316791271890034	1.418314843965796	-1.4999999999999998
-0.05496682638224076	1.1359556454981956	-1.5
0.15303049158304985	1.1707128183646371	-1.4999999999999998
0.041483086857714756	1.4062734005980249	-1.4999999999999998
-0.41704348376757416	1.0547258919069502	-1.5
-0.320088675155643	0.7792006679354178	-1.5
-0.19164985571894633	1.2482913089570722	-1.5
-0.3266362466696324	0.6761974077298447	-1.5
0.050479393278346496	1.1699573176211389	-1.5
-0.05245662644797655	0.962280477198515	-1.5
-0.41199334012077315	0.827025819096372	-1.5
-0.41682169771089217	0.6203560792489462	-1.5
-0.19715596724090145	1.1284729653496106	-1.5
-0.49454041352285927	1.3316834722681643	-1.5
0.026681429227751963	1.0717720630539418	-1.5
0.1698965209940403	1.3262979699280755	-1.5
-0.2990048114612993	1.085286562567637	-1.5
0.28854975554833084	1.3015619322441556	-1.5
0.21337863160208406	1.483537241193597	-1.5
-0.41668269725232543	1.4344544604037308	-1.4999999999999998
-0.07663640528951388	1.2974197592446988	-1.4999999999999998
-0.4815020512921544	0.9448911554556612	-1.5000000000000002
-0.17394988788383028	1.3807126729251933	-1.4999999999999998
-0.2974345140872635	1.1922284368886096	-1.5
0.07714301920756247	1.2857343167581596	-1.5
-0.12320381773563499	1.0411081913507845	-1.5
-0.34285826194653013	0.9191978397464504	-1.5
-0.2194512227795914	1.4911571759893225	-1.5000000000000002
-0.22198011056622255	0.9781366334752889	-1.5
-0.49708630336273407	0.5540276065566823	-1.5
-0.4348838921214807	0.7258109607769705	-1.5
-0.07659920469091161	1.45938222437249	-1.5
-0.3242227312225944	1.4992805868888144	-1.5
0.479278485586346	1.4829410919167936	-1.5
-0.49056474163185276	1.1565168324262234	-1.5
0.1132770906894257	1.483859623813456	-1.5
0.16124469391177565	1.1019703518375146	-1.5
0.03706922568986902	0.7238634769688325	-1.5
0.22792333847574886	0.6822836022671244	-1.5
-0.29119685112304805	0.6351091002000991	-1.5000000000000002
0.3888639323728462	1.3003454540870327	-1.5
0.4652797426746509	0.7358626947973519	-1.5
0.14392533287670306	0.9791728399608219	-1.5
0.43224812749359953	0.8333193174474348	-1.5
-0.2278065706763608	0.7166582934866695	-1.5
0.08063109357744679	0.8524633694924856	-1.5
0.2658519112556479	0.801327082505918	-1.5
-0.3390422922087483	0.5243970569000853	-1.5
-0.026483505383619682	0.5959101442735202	-1.5
0.3618527004685702	0.5354279209336457	-1.5
0.17503358979804343	0.5811394260440446	-1.5
0.4938841284931704	0.9672706969143647	-1.5
-0.032356010205777955	0.85420103153709	-1.4999999999999998
0.4311804064890222	1.4215125831922586	-1.5
0.3045337082355465	1.2085432240846667	-1.5
-0.15214234547567912	0.5586440121239009	-1.5
0.4779534502141187	0.5388473638812822	-1.5
0.3640802298069955	1.057591825410193	-1.5
-0.48241207582855083	0.5128856667279718	-1.5000000000000002
0.03912449721401401	0.5016361322828676	-1.5
0.37835276804617324	0.6698988806532655	-1.5
0.2612001388277738	1.0925651168495136	-1.5
0.03979572262375963	0.9630298180768957	-1.5000000000000002
0.3356538841119916	0.9084522758836665	-1.5
-0.10589532669689371	0.702147431590868	-1.5
-0.18208710257933747	0.8065099122177665	-1.5
0.47186740133010163	1.222362288502355	-1.5
0.23291360518020576	0.9175796988109024	-1.5
0.25464760461453806	0.506634974827433	-1.5
0.47146326933779303	1.0943281150891575	-1.5
0.14948269711490292	0.7682860728826024	-1.5
0.5	0.8439500716623476	-1.0175013815436194
0.5	0.6366259981540496	-1.434786132877539
0.5	0.9984589773185966	-1.361074952042574
0.5	0.8526794023467079	-1.3046782847104494
0.5	0.5030126688537829	-0.6190061323975975
0.5	0.7559310612773076	-0.8605109937923878
0.5	1.0485195087527674	-1.0828754909394716
0.5	0.6714647794177695	-1.0636716335780958
0.5	1.014333752346306	-1.20578230788938
0.5	0.5616172372327346	-1.187510419259404
0.5	1.1606701246818978	-1.1809167741380733
0.5	0.8853121976860556	-1.473338189258615
0.5	1.3534788387184207	-1.4610913343389673
0.5	1.1910924601779143	-1.2950146457720704
0.49999999999999994	1.282252301321833	-1.3482232968392605
0.5	0.6145905924645523	-0.8182136986620451
0.49999999999999994	0.9509476912905375	-1.1059041221561308
0.5	0.5001064783978659	-0.9248098823160971
0.5	0.711038202069376	-1.335931802255255
0.5	0.5000260311311895	-1.497196870486618
0.5	0.7387359039358512	-1.1743342141649022
0.5	0.6154115644619474	-0.6698155868159857
0.5	0.7383871549923888	-1.4511777314089165
0.5	1.194890386593039	-1.4009449966976242
0.5	0.5016981977986665	-1.3641747664666004
0.5	0.5410802896303459	-1.0258887569324173
0.5	1.0318028095182001	-1.4883239385654956
0.5	0.6077124059735951	-1.282728196226393
0.5	0.8563886220569372	-0.8862992915743547
0.5	0.6912345524237099	-0.7484544906442168
0.5	0.5080944214492102	-0.805310417184407
0.5	0.6467297905125533	-0.9224527054421691
0.5	0.5077542898492621	-0.5115445515625562
0.5	0.9694621466184279	-0.9886993277249616
0.5	1.4469450731917848	-1.4979322928723433
0.5	1.1586946530019766	-1.4941734031781388
0.5	1.089710687094499	-1.402805690860971
0.5	0.8961209010968361	-1.2097327230871817
0.5	1.3178616958040434	-1.2129925030065845
0.5	1.3527588817363991	-0.7534480779962599
0.5	1.4812291483046713	-1.3677932542497022
0.5	0.8211009001955674	-0.7886942266619783
0.5	0.8970623298412809	-0.5257863159131275
0.5	0.9816860608012424	-0.687627054222111
0.5	0.6626554096559277	-0.6361730975859816
0.5	1.1310828104667163	-0.5792058088986802
0.5	1.4032479793505814	-0.9114922122281369
0.49999999999999994	1.0840630199434478	-0.9735039394836525
0.5	1.2720848756788643	-0.9720933342250431
0.5	1.4954730863578276	-0.803078107896004
0.49999999999999994	0.7886135386607994	-0.5455699785287946
0.5	1.4802645617824184	-1.0305567198949475
0.5	1.0346853088908565	-0.5046191130198979
0.5	1.2189760248190904	-0.8239290754713168
0.5	1.3449677178917288	-1.3370077532465665
0.5	0.9406167777336248	-0.8031084333019498
0.5	1.0917993665475143	-0.6991569875140372
0.5	1.1057421095199105	-1.0735918223232537
0.5	0.9746013988478602	-0.9584818812867953
0.5	1.2794352175510177	-0.5248245076917148
0.5	0.5951612341063114	-0.5301174635662137
0.5	1.478918964861407	-0.5385296934992847
0.5	0.7854770342693724	-0.6480385677869894
0.5	1.4638269954202598	-0.6837219807995205
0.5	1.3675754886287315	-0.6543606694333268
0.5	1.091583756229313	-0.8551621336156546
0.5	1.215391358330556	-1.172035248597894
0.5	1.2865427696730294	-1.0726031225798054
0.5	1.2219045306957848	-0.6772740094643905
0.5	1.4335723443173742	-1.2563832690023342
0.5	1.4487442971169409	-1.1524369317121184
0.5	1.497927929636912	-1.4724980818421336
0.5	0.8842974315827445	-0.6275276088421724
-0.08451795907145085	1.5	-1.1373421776429262
-0.49652023915363275	1.5	-0.6946418434536142
-0.26615549212308365	1.5000000000000002	-0.7442346484113257
0.06505587639686394	1.5	-1.1166439450971462
-0.0045771129214190465	1.5	-1.223693235999909
-0.28476344883328164	1.5	-1.2857848987702885
0.13096159937200214	1.5	-1.4261116268516105
-0.4560491290056137	1.5	-0.9976040387211568
-0.48447703913803475	1.5000000000000002	-1.4296329007586577
-0.3281669287895862	1.5	-0.8276113486172005
-0.4545143608650793	1.4999999999999998	-1.1113416481357612
-0.04951352773208073	1.5	-1.4077638277207376
0.43478631967261416	1.5	-1.4740775900191627
0.21717158150799884	1.5	-1.31257555490675
-0.2624499030727244	1.5000000000000002	-1.4762537710599335
-0.40621208330699865	1.5000000000000002	-1.287775510637204
-0.19357459343460004	1.5	-1.0924452808715568
-0.3600009308818317	1.5000000000000002	-0.7065218185823844
-0.43961507303428005	1.5000000000000002	-0.8727805112459052
-0.10434914459972924	1.5	-1.312112748566601
-0.2583863592116824	1.5	-0.9275389110805259
-0.4946211095916233	1.5	-0.5612279614438769
0.0743429660551812	1.5	-1.2999098541740988
-0.11225222022536296	1.5	-1.0263955556424977
0.2578941460509998	1.5	-1.4708965957147198
0.3254135738700096	1.5	-1.3641031770537442
-0.22373324634797043	1.5	-1.3716363584543194
-0.37521450112620397	1.5	-1.4192371662090464
-0.3088548576286949	1.5	-1.0693399990319734
0.18348777590288254	1.5	-1.1992551453225584
-0.2885766973725339	1.5	-1.1737141002768847
-0.12122012185656472	1.5	-0.905019611275297
-0.12444870911457473	1.5	-1.4892371271247717
-0.3503899775307602	1.5	-0.9713444448662389
0.04464593225849833	1.5	-1.4913735092296674
0.0005815265816939696	1.5	-1.012391547206878
-0.4989813947911114	1.4999999999999998	-1.2425010910218002
-0.20883761149507699	1.5	-0.8277131987024353
-0.198494745699098	1.5	-1.2311491694358616
0.252489716036005	1.5	-0.9402546604268162
-0.17740505836190323	1.5	-0.6373355446210204
0.372723782274091	1.5	-0.7272154499096739
0.06498298335831182	1.5	-0.5863558634222495
-0.0992023021998957	1.5	-0.5393942818162988
0.41701776647494904	1.5	-0.9466706836492518
0.4177423009435337	1.5	-1.152081607774267
-0.07594634075597961	1.5	-0.7243308297303883
0.2342765684509857	1.4999999999999998	-1.1926715805909136
0.18658034515249317	1.5	-0.8016069958623729
0.09295411152751558	1.5000000000000002	-1.0600076602527666
-0.2752342053744008	1.5	-0.6831240407597425
-0.04110741704624955	1.5	-0.9306387709509683
0.4112858628813255	1.5	-0.5077891147680906
0.0797770568154067	1.5	-0.8372049390641436
-0.09364354211773326	1.5000000000000002	-0.8296749013416216
0.18319885350685028	1.5	-0.6738776825186668
0.12430464744499731	1.5	-0.9568566135412595
0.38617239773271905	1.5	-0.845856957397799
0.24890157123023116	1.5	-1.090412806607055
0.48344212453437674	1.5	-1.446468957433788
0.3589537628898667	1.5	-0.6275517512535067
-0.2924157061791981	1.4999999999999998	-0.5203408576966093
0.45935817872731466	1.5	-0.6041298134852129
0.42308734039558316	1.5	-1.2697078180344734
0.3479157800231132	1.5	-1.0453419900924257
0.49066286448076557	1.5	-0.830332071797196
-0.42790943953973504	1.5	-0.5457408148830994
-0.18596788142294	1.5	-0.7656406301242493
0.19507382370455015	1.5	-0.5666875004740244
0.0708568725511633	1.5	-0.7084839411267001
0.485367076629334	1.5	-1.0430467571175315
-0.031446430960646254	1.5	-0.6143800388403294
0.287762775691849	1.5	-0.7946112474414986
0.31048777848859965	1.5	-0.5382895480751254
0.31180948136050723	1.5	-1.291289735201657
-0.35571946882560024	1.5	-0.6185263172765119
0.4018640026755238	1.5000000000000002	-1.387149470683435
-0.5	1.9543150004154655	0.11096415147974245
-0.5	2.3951906532055998	-0.015279440014858842
-0.5	2.294427273601009	0.07300240763177979
-0.5	2.2174698576949283	-0.2007856278192418
-0.5	1.8069340473551065	0.40993324147528576
-0.5	2.474656558971708	-0.30744242530992993
-0.5	2.0852469833146423	0.4096498618107578
-0.5	2.3504273304716206	0.2883074494948059
-0.5	2.313652502197036	-0.10673227351549187
-0.5	1.9143882108413854	0.4943997984381907
-0.5	2.271310045381075	0.2250293998324786
-0.5	2.448563853653808	0.17591251941645267
-0.5	2.369901753655274	0.4686872188287773
-0.5	1.9111082976010807	0.21919000446644943
-0.5	2.0880352882460858	0.20283670801014175
-0.5	1.7469757675577529	0.29555369655655084
-0.5	1.653278762425334	0.49890369383708
-0.5	1.5190075599399164	0.4926112538673155
-0.5	2.2529042378322672	0.4585545176078958
-0.49999999999999994	2.2030637202964707	-0.04265158339498902
-0.5	2.092639678885305	0.056360793281663435
-0.5	2.304417189838655	-0.2971959605476371
-0.5	2.4662327418272803	0.3915279720705259
-0.5	1.8923012861974438	0.33224103352003176
-0.5	2.0058363509178796	0.2992089342529639
-0.5	2.392641541590201	-0.1727203746191725
-0.5	2.2010263763900464	0.31192685763134964
-0.5	2.084077794805391	-0.0821603863211611
-0.5	2.184240302614287	0.11155375298444503
-0.49999999999999994	2.3818738309386083	-0.36083998965183445
-0.5	2.4858070664838885	0.4992974703118068
-0.5	2.475684490454319	0.058122005637612606
-0.5	1.6402282042240353	0.3888716664489481
-0.5	2.4960086967175465	-0.17298079088207763
-0.5	2.0201403008742638	0.49001231056498673
-0.5	2.448204581542668	-0.4401382064114079
-0.5	1.9893131410737663	0.013866341884399589
-0.5	2.4694008335408673	0.2820269688284781
-0.5	2.2036055847953797	-0.4908855677546968
-0.5	1.7716031663259086	-0.23755931546275433
-0.5	2.0422452919248877	-0.12754022142952673
-0.5	1.9210443751734578	-0.18759364740077555
-0.5	1.6670686621959763	-0.43567304566768583
-0.5	2.4090649798492185	-0.47801201074701527
-0.5	1.6194599742114497	0.1679084537715987
-0.5	1.5954734398010666	-0.10255385648755166
-0.5	1.9308845168027482	-0.4653939502779192
-0.5	1.8731110443874495	0.11041365742804406
-0.5	1.5106715247679567	-0.18535328729466138
-0.5	1.708171103552806	-0.33790154971711694
-0.5	1.829059055990647	-0.05858118698030623
-0.49999999999999994	1.952248433641689	-0.06830589471598636
-0.5	1.5930041105076824	0.02551429070005426
-0.5	1.5568093032504569	0.2774742595842765
-0.5	1.846223829173795	-0.36019587220605465
-0.5	1.5006567261795496	0.4164063245713706
-0.5	2.2800079343532733	-0.3975613682712884
-0.5	2.1456687131666343	-0.3967808987361662
-0.5	1.794190024733736	-0.460319947359059
-0.5	1.7206456727987212	0.18051416770224216
-0.5	1.6976896144108535	-0.06620731187988105
-0.5	2.1874393807084216	-0.2960330687982542
-0.5	2.025583810714958	-0.49864494291881545
-0.5	1.7040466640058085	0.04924194982410704
-0.5	2.016007127578825	-0.32973003225646413
-0.5	1.520191429977277	0.18373106809559137
-0.5	1.5931242343245926	-0.2946783567692093
-0.5	1.546555242847366	-0.4065026851996054
-0.5	1.603968295127421	0.368817418616376
-0.5	1.6750108406835882	0.29351865685722434
-0.5	2.0762804919097864	-0.24195205156324673
-0.5	1.503864266152033	-0.03078997246292048
-0.5	1.6397254842133642	-0.200318124082167
0.45638256040645286	1.903585711852831	-0.5
0.36740773577329633	2.008904535023622	-0.5
0.058805384072529665	2.192641344258262	-0.5
0.06976010987668535	2.335084209342587	-0.5
0.3878675274220578	2.1598464830944346	-0.49999999999999994
0.26139339562948816	1.9777689472428002	-0.5
-0.2545259639535602	2.260125261957422	-0.5
0.4893627448505107	2.4794689251346016	-0.5
-0.09004912774182747	2.09432866229265	-0.5
0.47341371030971074	2.0909483917309357	-0.49999999999999994
0.3679061563935244	1.656317844868577	-0.5
0.2814063951364371	2.3156472215361026	-0.5
0.2398100841554235	2.1175908306444824	-0.5
0.3833680231156559	2.4850183417858283	-0.5
-0.1313835964302225	2.3314460320714794	-0.5
0.24037975690511457	1.8377582335665086	-0.5
0.1502153279297729	2.001306455877435	-0.5
-0.08579891001686982	2.1968413943258387	-0.5
0.47234299873280583	2.3553742060736518	-0.5
-0.11902087864070313	2.4777764228957606	-0.5
0.17566213252698126	2.2875341677182366	-0.5
0.03135624727380967	2.4920705588080607	-0.5
0.36674359778025856	1.7850512166744021	-0.5
0.03161450294239779	2.080774197548074	-0.5
0.35247364055486974	2.3876836335394738	-0.5
0.21106691157288876	2.455452434347576	-0.5
0.47957133818694236	2.2312215275330662	-0.5000000000000001
-0.3393366598066755	2.476196349514177	-0.5
-0.035498043082638375	2.3768209756795056	-0.5
0.4690109538597096	1.5953581677233324	-0.5
-0.22974258126167513	2.4680880179785505	-0.5
-0.3012788310972323	2.371989657172379	-0.5
0.4967270884790719	1.7505372990160761	-0.5
0.09039554695663479	1.9206798835431975	-0.5
-0.49340494931317114	2.4934875365559206	-0.5
0.2691815419132093	1.7314116595823943	-0.5
-0.21769356330189882	1.5544895130920613	-0.5
-0.04957967098039702	1.894609305295547	-0.5
0.03508998873919636	1.7364853991545006	-0.5
-0.4552070805125945	1.5408357256185807	-0.5
-0.28672249459322763	1.8772639786183296	-0.5
0.08827385352763453	1.5983482573900556	-0.5
-0.4538682733662207	2.324370272298473	-0.5
0.21827282139087814	1.6788221218232848	-0.5
-0.30500690381137163	2.232573071382861	-0.5
-0.16811675138021215	1.802848229606841	-0.5
-0.11110555681037804	1.7074828600086045	-0.5
-0.45807775618892266	1.7395188009703815	-0.5
-0.46643314035960615	1.858297246644371	-0.5
0.4371546785740116	1.530794393697877	-0.5
-0.061897686073855006	2.0332151932673312	-0.49999999999999994
-0.41517361602631864	2.1865231963818745	-0.5
-0.08411777176058208	1.5667248332895576	-0.5
-0.21262853616446242	2.094585152803767	-0.5
-0.38564129741212205	2.072133900320147	-0.5
-0.24029134671802502	1.7135418210210076	-0.5
0.28246418065254364	1.583107035743419	-0.5
-0.33970054907312175	1.5802279586957828	-0.5
0.3796693272389662	1.6169273984914303	-0.5
-0.46207476532829106	1.9872142270753728	-0.5
-0.36295465578534203	1.9453881104358528	-0.5
0.1651707571749761	1.7757117432383644	-0.5
-0.2182717163783488	1.9943604010684228	-0.5
0.07839044834075756	1.8637397144279442	-0.5
-0.3590791355098687	1.797361328075987	-0.5
0.18033740801766818	1.5020016399782667	-0.5
-0.4760323736721676	2.4601582627893483	-0.5
-0.37038765862581347	1.6911509929796935	-0.5
-0.49921638369838783	1.6406713345670076	-0.5
0.02008293554370644	1.9701351119901735	-0.5
-0.3551472718460721	2.3519626604101678	-0.5
0.5	1.7356155062367318	0.309833194460742
0.5	2.2708659789240673	0.2916352740900543
0.5	2.0035506541399313	0.49720562798816736
0.5	2.2824505719169723	0.05669387514603638
0.5	2.1864545765081362	-0.16530814453293485
0.5	2.2947807783147356	0.46493600222657583
0.5	1.7591876701777283	0.4502097832793821
0.5	2.1966643799058034	0.3637690458447105
0.5	2.3168211648764045	-0.17797979214848925
0.5	2.1151326440006546	-0.07707492668265445
0.5	1.9401542609513713	0.3988771389428043
0.5	2.2256219382108	-0.04642839194183612
0.5	1.98854530748162	0.06476805657729434
0.5	1.6538724105321965	0.4038553197867075
0.49999999999999994	2.445339985766481	0.22075513932192697
0.5	1.8492060210419146	0.20917425541107382
0.5	2.4867933092397188	-0.4011964338406465
0.5	2.358246902149364	-0.28555493758201544
0.5	2.157678773034932	0.2534847028566676
0.5	2.117692560847079	0.12966456034450366
0.5	2.4136973452374724	-0.03644321253783134
0.5	2.429737591103523	0.4930572797682642
0.5	2.4261959756252964	-0.1975387854925644
0.49999999999999994	2.4907797739028714	0.07740671421028827
0.5	2.460223640891387	0.3713967816814745
0.5	2.024291098057884	0.2386915582118443
0.5	2.499926455102205	-0.29788613757708204
0.49999999999999994	2.069035910551967	0.3527267744163676
0.5	2.349696676285449	0.1856518363381007
0.5	2.0852930572689017	0.02389914684168762
0.5	2.171157105268362	0.4607868077984083
0.5	2.3829730487890584	0.08457651902837038
0.5	2.2501081781171703	0.17580975767626916
0.5	2.3611172961047457	0.33579606353971386
0.5	1.8365093873915146	0.3416150007073273
0.5	1.5494328466376237	0.4804075365331161
0.5	2.494723335888641	-0.1044602860684416
0.5	1.6032005358892505	-0.33031892911480354
0.5	1.688344050661228	0.08934898623892142
0.49999999999999994	2.1200462653528187	-0.1249675325751082
0.5	1.946342178078912	-0.13138323292856374
0.5	1.661691979159355	-0.19791095143716228
0.5	2.1020679192876273	-0.4543504514634061
0.5	1.5682975315545202	-0.05343137535239384
0.5	1.9930656355177998	-0.36299729812318426
0.5	1.9382441879210033	-0.0035609330738067685
0.5	1.5937721259817033	0.36280094983442734
0.5	2.122479234772289	-0.28613794343639176
0.5	1.6733420705806947	-0.0317187985489189
0.5	1.5058849682587194	0.45674357841922286
0.5	2.2983219922414473	-0.31744170413002804
0.5	1.785359857380107	-0.45636480443643646
0.5	1.5023735108823493	0.24401316005038595
0.5	2.033926408462757	-0.21140304540327803
0.5	1.7992645240803034	0.12329194147542746
0.5	2.3310430458874896	-0.44202949232670186
0.49999999999999994	2.0322853261718454	-0.0701730128067489
0.5	1.7785493722418724	-0.25554815938957315
0.49999999999999994	2.210761091933703	-0.4187328838052515
0.5	1.5101833645562301	0.13037893449824134
0.5	1.7853334937021077	0.000653068022381853
0.5	1.943896487385111	-0.4744830778873619
0.5	1.6162940468718674	-0.4851419943928347
0.5	1.637536502954532	0.2378502129587703
0.5	1.8552490385908302	-0.3591732937622043
0.5	1.7407558853685225	0.22035794694554312
0.5	1.5090252762371945	-0.4110192562842362
0.5	2.485189938419849	-0.4894028892779604
0.5	1.7812001593980362	-0.13576945170174287
0.5	1.8986271316881205	-0.22537715545925113
0.5	1.5503591491427953	-0.24247454421034284
0.5	1.7171879412303501	-0.37745308416283063
0.5	1.5904252999673365	0.06187248450313454
0.5	2.2371765559561547	-0.23770818676986985
0.30598908928703744	2.5	-0.3879876999132614
-0.39392953680094545	2.5	-0.464102568351625
-0.3789679889775581	2.5	-0.07352124901898963
-0.09828538963244249	2.5	-0.4478266787129964
0.11809639083809753	2.5	-0.3841660153432276
-0.21350894870241302	2.5	-0.2968691333793
-0.12601382270655148	2.5	-0.03429215850819042
0.4221170024780165	2.5	-0.46319877619375244
-0.2755026551234131	2.5	-0.4939422600489336
0.03387005704549615	2.5	-0.49868478467135136
-0.23144584169761306	2.5	-0.1425454797143275
-0.012708775656445015	2.5000000000000004	-0.018546194561566337
-0.42602747435988697	2.5000000000000004	-0.337618330573923
0.0662749326811729	2.5	-0.24411522706869745
-0.3341675670694666	2.5	-0.1648597599943351
-0.0643001252170786	2.5	-0.261235712209126
-0.4023856408505113	2.5	0.050835063212591874
-0.3593735141878679	2.5	0.22462224353330829
0.18638063053050635	2.5	-0.48845042324637494
-0.06420352636918714	2.5	-0.1392500851646403
-0.33623173301608245	2.5	-0.2892495287830208
-0.492443596902974	2.5	0.37334079316900914
-0.1983675697616064	2.5	0.06966772556340572
-0.49658410785898155	2.5	0.1580112404638755
-0.3456547176655439	2.5	0.32845433620010267
-0.24760387186211574	2.5	-0.040080836522508295
-0.46104625065841054	2.5	0.2571068983789153
-0.26432085486151746	2.5	0.16587122773665042
0.06156097320090989	2.5	-0.10700189365818866
-0.4713071485245921	2.5	-0.1996796025360065
-0.49894980793515964	2.5	-0.08055486897745576
0.22867887761948347	2.5	-0.24715596589217492
