# .PCD v.7 - Point Cloud Data file format
VERSION .7
FIELDS x y z
SIZE 4 4 4
TYPE F F F
COUNT 1 1 1
WIDTH 816
HEIGHT 1
DATA ascii
0.6827081921383603	-1.1956513379412517	0.5567774470766865
1.1440610628403958	-0.5943252551597233	0.49151002673699945
0.5439452842185203	-0.8780422654291189	0.5401120402539633
1.0511516552262876	-0.8713998011672173	0.5160112922341941
0.4887870807779885	-1.2764648385630395	0.5716914231162564
0.9821930726830902	-0.7869483771791215	0.513072903469042
0.5120263180087957	-1.0433111512483961	0.5536323009046462
0.9101794688897159	-0.5585842852343881	0.4997977978893182
0.7826297462172594	-1.0864208980149985	0.5441712047353461
1.3363602378129424	-0.6204140320768373	0.48445563785380524
0.5617679416622673	-0.6791889204425808	0.5248027021152927
0.5578782555667925	-0.5642376771359766	0.5166136693456972
1.0782553603600558	-0.6785452597388979	0.500706601661388
0.7189515638421903	-0.6513538930208157	0.5154569512167342
0.8419617641109208	-0.8298695416937095	0.5227277964601483
0.9510646148462798	-0.8854614707637246	0.521695547920055
1.2302481563804006	-0.6891797846790484	0.4944037031302615
0.5905429967152396	-1.2854917336445773	0.567610648031075
0.6827366388683496	-0.5331404147615255	0.5085355414551502
0.7928064407862889	-0.5506126326236819	0.5046825906769311
1.0220362633852993	-0.5881468302530609	0.4967419936775288
1.146999019646394	-0.7812028821844574	0.5049806780787939
0.6236206893965498	-0.9687017909232829	0.5430034624983577
0.6104915071396924	-0.7877134819920378	0.5304361751023458
0.8203887121625238	-0.7172275907361818	0.5155303058330138
-0.40508706320593973	0.2322694330884589	0.652427285380474
-0.500215380926591	-0.4213138542907981	1.2737451407981808
-0.39105660160343997	0.3368711129684491	0.4947840320579086
-0.4227880253354397	0.14081934511441127	0.5253684065145815
-0.4848359067176082	-0.25819330215961633	0.711084889002878
-0.47643116352476916	-0.1783699858709963	0.47857771761289664
-0.5193821516410668	-0.528214494166533	1.1995377962489422
-0.4451327047249739	0.002679242370835619	0.5475818214991589
-0.5104538937857124	-0.3818079675425815	0.45690324996948817
-0.524303128551175	-0.5267725916092207	0.9480883375215852
-0.49986872227736456	-0.4045234133804061	1.1555668964198695
-0.4740768108315958	-0.18326655916053264	0.6327210922394192
-0.48599815249449646	-0.3057137430512542	1.036725596895268
-0.4475431612119913	-0.02664302788741962	0.6659851213438622
-0.4659003508992735	-0.15714161248412684	0.8210759531294018
-0.5157383741834635	-0.46043560147090107	0.8318739402870123
-0.5031541805828212	-0.40210850666475134	0.9760055070578154
-0.5348051976237169	-0.541912414453396	0.5580103553724794
-0.46114690552178206	-0.1602066583304279	1.0774176210367794
-0.4971518060960081	-0.3411710943220082	0.7783381384255685
-0.43783735409029734	0.020474479473930655	0.7600013997222467
-0.4283774680674346	0.0891125265166859	0.6689045919330292
-0.5094081765155738	-0.4942579519852347	1.4125010024001448
-0.5165114343130436	-0.43946170600697326	0.6254655572519775
-0.4982085943996895	-0.31952503122429704	0.5526933634275762
-0.44182040220268237	-0.027309457919616437	0.9502751937495205
-0.47502578388643313	-0.24969620484716917	1.1208761243314704
-0.42084429156362985	0.12293642403314392	0.7639697012256522
-0.525722969682713	-0.5101181941362719	0.7449048468395434
-0.4935131791982724	-0.39261885153640597	1.3695688624691107
-0.40946947309718656	0.2300650701965705	0.45656093227712474
-0.4837631145684944	-0.2698440594926534	0.8571002088874862
-0.46826172334598676	-0.18440896282054994	0.9253403565946509
-0.4405011915666693	0.0421534218560812	0.4557641074422059
-0.4838632780848348	-0.31818208878303944	1.2410843680649026
-0.5130535988194643	-0.475642517286328	1.0850660765049585
-0.4485528942626253	-0.05461818975048419	0.8418229446470638
-0.5094143409241193	-0.5105713210167598	1.5434371163001273
-0.5300303907204604	-0.4991634127971175	0.44683177327988804
-0.4591368584493152	-0.07314289244236528	0.4749838001999267
-0.3770779324679976	0.4295598612189147	0.4304526595977348
-0.5156101448014158	-0.5187165796212848	1.3069783212436799
-0.4453790126413529	-0.07453557990550888	1.1074876685685522
-0.35901474980032577	0.40568452799339455	1.0896204929606361
-0.416572309245608	0.09005468729031173	1.0781550315316983
-0.42202033441457265	0.021197789788158915	1.2835133326672035
-0.3421376528154418	0.46441511653447515	1.2720848346610563
-0.40404021757438724	0.10523480690119477	1.3642092677263642
-0.36403251916654095	0.3289283485102347	1.3493939586662032
-0.4190925947593891	-0.0038165249650646948	1.501597016627841
-0.4774135052393468	-0.32466718225648783	1.4954597904628641
-0.37467316355681335	0.24312820254557072	1.492646894009117
-0.34802246100440226	0.40117895262508946	1.434904181602131
-0.3777247869268602	0.3035538276932794	1.083404347969555
-0.4634208044708988	-0.2036926577439408	1.2639417506700428
-0.3732895060011994	0.4190949817182233	0.6011953437599056
-0.35888838109934185	0.47398360867286077	0.7316073113623612
-0.45659707325558097	-0.21314173154808622	1.5135143328271887
-0.43774992930178896	-0.08113039709914843	1.365493332994339
-0.3898421390302156	0.21507151559616905	1.1976819005260548
-0.48220441266361525	-0.3183337582131812	1.3218287478464212
-0.39736086140880145	0.21840632546188254	0.960168094831685
-0.4280641323641587	0.05277315562087943	0.9395668941920086
-0.4018197511934986	0.24115847508974597	0.7092927898546056
-0.3998350838916185	0.10927009624075515	1.4657997126419178
-0.4136951778209736	0.16264139847378078	0.7778690604326183
-0.3680750658054308	0.4055208572643003	0.8255571517809287
-0.3274464978477541	0.5200656108596124	1.406942680215583
-0.36831927073511783	0.3305541996978607	1.2154358496201991
-0.4537797498214895	-0.1756213072188704	1.397188720417273
-0.36124048934804015	0.4240510845992913	0.9272699682187294
-0.37289235763563655	0.44173355888465465	0.4929155478554232
-0.4256500317879108	0.02415943367040882	1.161693672184475
-0.40470216003678616	0.12243788949341496	1.253746986779249
-0.5000447290504252	-0.46133920920653054	1.5575143627940295
-0.38426643610771094	0.22209248438122853	1.3235367728704588
-0.38629251549048904	0.3335281963244573	0.6741351655764694
-0.3864789641631951	0.2963657633149339	0.8654935383441864
-0.44293391156194023	-0.08281006290996339	1.2228053975062867
-0.4354533520219236	-0.09929090922044854	1.5288240031725064
-0.4897589285676584	-0.3754826439409678	1.4035867437012197
-0.39870337485474455	0.19129393235607992	1.0644978292277936
-0.33943083475526037	0.5028626752476159	1.1476179116208771
-0.4144753713580943	0.13764916833053137	0.8874131618149034
-0.459820362334953	-0.16297346044728095	1.1535745590516087
-0.4380023085073795	-0.01600176792205478	1.0131958334617126
-0.3477847284135911	0.48249273713255575	1.0112221817692133
0.4094234303576352	-0.5175113830586602	1.129057558144204
0.358261126134877	-0.5193887427038619	0.9680241784720605
0.09463442811489817	-0.5238661693493929	1.4424396783122517
-0.14304074904279393	-0.5304444760219016	1.2322270240093172
-0.005298585255612676	-0.5277786977428528	1.0662656315658219
-0.15664953941106025	-0.5297186878250131	1.49689436727431
-0.3011015823820857	-0.5334730238707784	1.430316344267503
0.5693280863074406	-0.5125780623648752	1.3978694709054036
0.2877389601938793	-0.5219597053400905	0.7502701444850572
0.09958748231288064	-0.5253205823635042	1.047369063897614
0.35073037414696373	-0.5200152369442118	0.8564345918972697
0.17181551062337952	-0.5230032421758298	1.1911247789710666
0.30993313697690783	-0.5201789339596304	1.062676639352583
0.44750554800951925	-0.5178877596601397	0.8037224504851966
0.16146863278745957	-0.5219056615753286	1.529333391105943
0.41067905139757865	-0.5169957329041864	1.2508686056880982
0.24663494979723094	-0.5203135201407191	1.4126345438702288
0.3442026641514683	-0.5177730486048686	1.458775202017606
0.28353013461179605	-0.5202239227417246	1.211449950776857
0.5626499003096974	-0.5122215948701228	1.5278250002946985
0.20834485685230753	-0.5234118264476579	0.8671193553778148
0.562878891093957	-0.5134405966474946	1.2204793540760637
0.5029246833287498	-0.5172099330926105	0.637878334101041
0.4076316840080049	-0.5193818432617611	0.6704527534998547
0.5634250472849494	-0.513828288745446	1.1198614565205296
0.20649657014907052	-0.5226723917493035	1.0639151854864823
-0.414753957853666	-0.5357911268884435	1.5374993288456231
0.10924460960980921	-0.5240812918213872	1.299873578471424
-0.21679101168282905	-0.5318532182819045	1.3257487866710291
-0.07377705378561923	-0.5280398945567346	1.4158503542994734
0.4354932363513549	-0.5152840757938087	1.5300446138403219
0.38619602891593546	-0.5171397399169161	1.363149669366411
0.47182448427138607	-0.5165449438364561	0.9933253215418489
-0.0034390146151754937	-0.526689956845029	1.3282554279857854
-0.0271196563411626	-0.5278741513716542	1.1745953527318034
0.49519722758388035	-0.5178194443862988	0.5317437926076454
0.49686669812383255	-0.5163369370022447	0.8937175505298245
0.502431404325185	-0.5145346870403567	1.3123291387733287
-0.013821071342671836	-0.5261058118287351	1.5378100429428092
-0.30052399417139525	-0.5329343634497565	1.562013234781081
0.28565933762123685	-0.519763655372758	1.3140644792147071
0.0771012888033031	-0.5254488925344656	1.151484342554457
0.11085105391020682	-0.5254500226844345	0.9465967616855295
0.2829530555103635	-0.5235415662095799	0.5295110094997387
-0.33078611200214303	-0.5377563290870975	0.8860172101671516
-0.5014144780427872	-0.5416728083952311	0.9903552156151783
-0.3768300859681895	-0.5367092786895713	1.224389291431042
-0.3384944438669618	-0.5372539575148473	0.9908924001225523
-0.48012559616484984	-0.542135964191667	0.8369958093766868
-0.08398493425834365	-0.5325734844267104	0.664022978740438
0.1275339735778438	-0.5258459350132961	0.8107761023147939
-0.23497803018740004	-0.5336673548285378	1.1060873728307352
0.23801221726501298	-0.5239398454459485	0.6503646823415367
-0.3169711996445266	-0.5393578329442664	0.5946763278559453
0.4769323158473128	-0.5183144376191062	0.5251173152841992
-0.16904048943628827	-0.5342263244856686	0.7601889695078118
-0.13691469549478008	-0.5319792945390017	0.9631367645227021
-0.4841012854639041	-0.5433837189517106	0.6689038078105706
0.029860521419610767	-0.5288751063446695	0.7544251706118912
-0.4303121806662982	-0.5427485342450012	0.5476245109598185
-0.26487720670100384	-0.5366269453401503	0.7891768946481067
-0.054881880074029096	-0.5293320805662612	1.025667383251875
0.07946748223508003	-0.5287589067105826	0.5733341879793351
0.07231051961249521	-0.5264650253455785	0.9401599886349916
-0.44135977106564855	-0.537590870455761	1.3522547178778095
-0.1768598805599941	-0.5358936669396036	0.5455888072228594
0.10866209483255562	-0.5272367224830482	0.6811179194890997
-0.28381175281213145	-0.5335839416755164	1.3135210018704722
-0.44806392069845724	-0.5369830109296817	1.4686712443718561
-0.46909486099309566	-0.5396600276490555	1.1579890300598237
-0.188396656663271	-0.5317261089226089	1.2061850267295422
-0.4968294499100057	-0.5452156203783644	0.44965477533440695
-0.2110619902160611	-0.5344835853242085	0.8901700933339227
-0.5340548335275738	-0.5455683615070038	0.5463927656955194
-0.3817239047059263	-0.5399592131760252	0.7647494385171155
-0.051617081517425306	-0.5329393115454178	0.4807440186966622
-0.05736627812014288	-0.5303292431168826	0.8885655551726152
-0.36171476154340443	-0.5414223606258738	0.46905736433348943
0.379732212899071	-0.5206793527941188	0.5648179070032324
-0.3498441359965036	-0.5366410858986301	1.126611059836283
-0.20770109582908833	-0.5359287852712198	0.6636490342888545
0.21300934734836913	-0.523919319567512	0.7533000841168099
-0.11131495483373166	-0.530117877367188	1.135304321204523
-0.07059750906060658	-0.5314177946219883	0.7809318895148643
-0.49722946899671494	-0.5396711306723705	1.2687749310600906
-0.36148850512399977	-0.5350088305524405	1.4138129068278067
0.3388315300600417	-0.5210321433584496	0.6762347278657811
0.5185027886639337	-0.17056750630273912	0.6671722524735637
0.5261765817162196	0.4007293277771018	0.686448421034342
0.5042336963416347	-0.15531171794515222	0.5622100746182516
0.5273647617615114	0.18889758170104692	0.7086948346623697
0.56503425376861	0.4266987614064724	0.9679513827194167
0.6206960070954558	0.39329573041491045	1.375719651121551
0.49987169988251534	0.17995683232096366	0.5089172682316505
0.6326216447532104	0.4813402088473613	1.4569781973226477
0.5182607284947138	-0.019199691026323722	0.6556989311799767
0.5724078155093645	0.20863945154953384	1.0356721860368865
0.5607886269831173	0.0973183034811789	0.958139896768824
0.5502837248251828	0.32338757951835634	0.8670861851586582
0.5820660938944539	0.12894104989453298	1.1111674449672617
0.5442023216240056	0.43634211626840397	0.8155236182620984
0.6040028366397678	0.2846135861476156	1.2610422958192062
0.50273285653965	0.38236663702176765	0.5167840762085922
0.5400516434929167	-0.010477102855119947	0.813937055394334
0.5482082837247724	0.1597661159370151	0.8624571048259411
0.5086932089736229	-0.2886621229259887	0.6032616609942354
0.5383937119985389	-0.16492145717550732	0.8117618488791648
0.601980551496972	0.478492245113998	1.233869065808633
0.5122995413079711	0.1173899098488566	0.6034963689287666
0.5801749135997792	0.32954816937335746	1.0845180286003484
0.5526440768850318	-0.045653706855310644	0.9079586657045221
0.5357155334872925	0.28366497782352834	0.7634709115434152
0.5805558311030498	0.49935916610436537	1.0764015314547133
0.528412746270872	0.07671826243191625	0.7235274841438019
0.4992174771912936	-0.029741903678373878	0.5176006619562868
0.5155859705679442	0.322216473438446	0.6143072586795226
0.6178673969170404	0.5073654702723533	1.3477897323997912
0.5029193727927239	-0.44316541681576316	0.5710962722316428
0.5227293569773535	-0.2772138861852347	0.7048133913262656
0.5875869000318555	0.23022601475275847	1.1449025603659848
0.5954369675755868	0.3601474665247176	1.193774915375374
0.5289189032199241	-0.08385772801730736	0.7375160161657012
0.5593633509200452	0.2471017115701408	0.9381457190675337
0.5778479401592147	0.011852119273161623	1.09948735483371
0.608105159746625	-0.18691119177011406	1.4039434067179113
0.5472123164218211	-0.21907416854347905	0.8928975847750937
0.6398311650904535	0.4672776851107151	1.520242691340742
0.5628875839958228	-0.14865540527880058	1.0098340231241105
0.5248573937800627	-0.401201513897745	0.7453524623953419
0.5923678091458713	0.04737803467330997	1.214792403934267
0.6162961387645448	0.3497966588894916	1.3474381169665692
0.5849430333889648	-0.4341532036893164	1.2648424093694592
0.5107280586489632	-0.45488485603162193	0.6376452431542184
0.5560610267273636	-0.449193815012986	1.0223984393026089
0.5994793414325974	-0.48321824646748884	1.4001883948711968
0.5819069995075183	-0.23477907572493853	1.192080201959357
0.6272025402868734	0.048566576371021714	1.5111934185425833
0.6292292019776295	0.14838729892764002	1.5049702088942802
0.616054726182745	0.1453920406924273	1.3934704267857088
0.5985631935790322	0.1497698947346873	1.2434685076918277
0.5325535262450374	-0.24971217595770773	0.7752594382495333
0.6186076274546106	-0.29375377904005573	1.518526744072301
0.6097747399689091	-0.04859999273382054	1.3856237071424686
0.5960336158186496	-0.05754825810174979	1.2706983998051364
0.5968414901633262	-0.3469353762262781	1.345660324886568
0.5957993666143296	-0.21994484548431295	1.306908879925416
0.54747358682768	-0.39090812083931714	0.9355485501534408
0.573210480883817	-0.5080701744443324	1.182308299376576
0.5635330553633662	-0.3394224876450677	1.0602113748472013
0.6109533452854305	0.24290695723644773	1.3270815299518077
0.6211734058481654	-0.09203348417154762	1.4929221217043862
0.6299173689878063	0.3793405928196237	1.4564969596093507
0.6064559495614436	0.049858029938201154	1.3341949110894156
0.5407597387141441	-0.5057558345173546	0.905387164899546
0.5794282042114821	-0.09227706420363799	1.1374436612320817
0.5228510660104423	-0.5098725152475795	0.753830974892256
0.6259437002573942	0.24803061450189576	1.4535460732781278
0.6145412927656678	-0.5008498154602264	1.532616120972665
0.6223436145116178	-0.18846150607442727	1.5255742854154482
0.5777624335520877	-0.3633198434753398	1.1870223307721315
0.5863131813139894	0.13941664808562182	1.1415732472263556
0.568084100351692	-0.2405539890258488	1.0757118677672461
0.6119400074726674	-0.40613708291341155	1.4881792960473725
0.5376540147563613	-0.3431294638984225	0.8406767238263638
0.5560568469332263	-0.07849897139563522	0.9351529119103508
0.5548406112771073	-0.2851894412037259	0.9734206142061447
0.4981205562967997	-0.5147135030176655	0.5443449265112761
-0.31110439203367507	0.5389436872897555	1.4689835978946948
0.20166252716150837	0.5343361326590685	1.416823888596976
0.08808619355023409	0.5282642257971003	1.3432516095760547
-0.0894306041808067	0.5299197576691049	1.3620342129019176
0.2117405401164855	0.5137878742325271	1.1702604570145219
0.4894345826351992	0.5349486637135237	1.4259385634182826
0.5048374023209112	0.5043039287345097	1.058227397124939
0.5426286653571183	0.483981227306297	0.814540930183486
0.30381603656898226	0.4880639154726444	0.8620793445878814
0.4238244886921627	0.5219616794892982	1.269663699677776
0.5820948836039188	0.5253005679078206	1.310707431490503
0.31144026261501534	0.5174797225392928	1.2151816873103305
0.32530430956109097	0.5073582697237268	1.0937864939357715
0.02538288142866175	0.5129482885667811	1.1590418955170114
0.013811718233816935	0.5340524926810812	1.4122687745641689
-0.09310638661214111	0.5390510130524702	1.4716072316713882
0.13760053731830352	0.49579209597411833	0.9538165797048077
-0.20211325489083526	0.5369581765962638	1.4458207118245414
0.4304301926150432	0.49282818533074124	0.9200369191973687
0.40502314744318174	0.47212823645839264	0.6714354761126954
-0.17189508011744434	0.524406058077431	1.29535226790528
0.6001252897034476	0.5352920707818024	1.4307383237627824
0.3051277113143586	0.5367036974322369	1.4458738151204458
0.12370294430506484	0.5093386284766576	1.1163202029242223
0.4424668031199329	0.48216896832132977	0.792176154704601
0.44299960586084075	0.5122597946746738	1.1533367992993908
0.22955028318744317	0.5005025053399355	1.0109153489870084
0.08651146837286282	0.5196009805121249	1.239263595987646
0.3260987008907449	0.4971838869935608	0.9716759565139607
0.06715307890731255	0.502137187297968	1.0295403311856592
0.10828825629768435	0.5382494540355218	1.4632204960034414
0.5267461137069706	0.5173287741258286	1.2146889594302628
0.2085878715403151	0.524671121055633	1.3008645057298283
0.5067701189014274	0.46782194204614785	0.6203736034695412
0.5004537755164158	0.4593024134778925	0.5180814649311519
-0.08621572007499505	0.5192437665148564	1.2339180780253398
0.3185042190083324	0.5269764943503348	1.3292075157384096
0.5313232633842979	0.4938645166636042	0.9330933026811782
0.43935070764304485	0.542194341986863	1.5125961273777375
0.5818446751638912	0.5097251367155792	1.1237658038934806
0.40654175053495456	0.5022534871116862	1.0330153286275083
0.32449708059111204	0.4776193213386085	0.7368474927077221
-0.08234301956101615	0.45491339944551773	0.4944820851825306
-0.16686008204439962	0.46313883641472464	0.5927554574901807
-0.23961934283362812	0.4528555702916723	0.47830890165204526
0.02515841423044863	0.48910157075109384	0.8813127908382373
-0.04522065183341856	0.5032544218222502	1.0468655768660324
0.1273537874633387	0.4636837210057226	0.5851289874603341
-0.2478067821139754	0.525448614951607	1.310830085738688
-0.2692288461484403	0.5092199270864316	1.1258104708452081
-0.2351362493235309	0.4849739039264744	0.8462704496126787
0.23104532150476953	0.4621526534433487	0.5626891737606098
0.08726634995382926	0.497181882562317	0.9710090700845829
0.2612008713003677	0.47441113906832666	0.7017865090847488
0.08391700163244621	0.45322087192422567	0.4672412843232304
0.47008270656091733	0.4580979587994275	0.5049392880210929
-0.35017120264384277	0.48745475019240747	0.8801324445726713
0.04443821701334328	0.47910152180920323	0.765773020087384
0.00296579919431984	0.4675458039752106	0.6352651243831435
-0.3354583072002363	0.46576986515958785	0.6308645604179606
-0.18914372612496436	0.49499413551897303	0.9589639162920719
-0.15237959292073025	0.5154390837266073	1.1915911909294616
-0.28462290906591037	0.47682482749718696	0.7551908142427354
-0.07504599276167806	0.4834771555192354	0.8215647784376473
0.11592264640454673	0.48574943974556234	0.8386076358613447
-0.3415391209306903	0.49806446539995675	1.001344754287846
-0.16407344755702988	0.47748124996586594	0.7570313620952023
-0.3082039348928076	0.5177442244299116	1.2253623325628837
-0.30844184562178606	0.5333811319010804	1.4046196504520605
0.3295408418058374	0.4565058948862801	0.4933161311570016
-0.3464124026115042	0.4479996107668447	0.4276803701497623
0.3992967524342971	0.46698415574049407	0.6101395255495412
0.15897366592681308	0.47366834408642133	0.6980919584009855
0.23268859930523828	0.4831183093409828	0.8029413131799057
-0.16186249098525093	0.5050509274359324	1.0729587312108915
-0.0643527988699588	0.49351312924600055	0.9361030975425685
-0.09008058023771107	0.4712273687540855	0.6818541891634147
-0.22469234588237813	0.47003429205000113	0.6745250181966722
-0.33860263366387083	-0.3942901434557371	1.5698182196118666
0.560461978498744	-0.23171826144015611	1.5342680707222243
-0.2475491820980373	-0.46780389179159165	1.567028142894298
0.17037563470292535	-0.23714258912681885	1.549106213177115
0.06771161528707419	-0.15275706856821308	1.5522385751440007
-0.0063194766684995475	-0.290419681659175	1.5562850144999252
0.5488973424892282	0.16551568553496263	1.5311292657107813
0.4530110494495376	0.09154208234402436	1.535430753047084
0.588612066306841	-0.32975576842402315	1.5340836877139237
0.5457550007400424	-0.48944966380716587	1.53714663082983
0.28664618136584785	-0.057937049490105606	1.5430842437366146
0.49525620554324723	-0.07955903950124833	1.5353699531293503
0.11453144834708767	-0.34650140979673766	1.5522082474967382
-0.12653721986065333	-0.35384494493991947	1.5614139849258015
-0.03729515940999152	-0.5039963536903669	1.5593827366174187
0.2993227920251901	-0.18477464022376247	1.5437458612009203
0.46004978930294765	-0.3185232301688362	1.5388566994629116
0.11831437325071185	-0.004985512048111243	1.5489893360933724
-0.46312661160449176	-0.49861497380403247	1.5754787690414764
0.19428763009543212	-0.42374522669078485	1.5498800735273213
0.627959839261599	0.2779696971266891	1.5271190850716707
0.33524018209350914	0.17273307821945186	1.5391646270243866
0.46163251166815267	0.21720438368635145	1.5339722484017506
0.5866751239460423	0.412882460181105	1.527469362839907
0.43930683565486284	0.35136584642031565	1.5336105002784406
0.32345071372185125	-0.31239894419800945	1.5439804112328026
0.2193086395329808	0.08785571628657018	1.5443242801598467
0.1618184435363176	-0.111146333971895	1.5482959932528257
0.6189145703277552	-0.13810837075533333	1.5312089697893656
0.43044031238862923	-0.5137322340593393	1.54173721645413
0.0980980248747008	-0.5162733749419466	1.5543601515404648
0.4328277727336336	-0.1984173757053012	1.5388071621603978
-0.15568669731184834	-0.23975295250536116	1.5614916804823467
0.3962772569669859	-0.10157479303475826	1.5393207903109785
0.5639708978321296	0.061414103898570466	1.5314952610863142
0.3365660132312131	-0.42740008018319775	1.5445188046430929
-0.08516579472859367	-0.14114090993594483	1.5579299887950877
-0.14159840186369946	-0.4952044588407311	1.5632579976489296
0.3438799636493132	0.05315170512613167	1.5399139470822358
-0.2300295534212186	-0.34578668072789515	1.5652651087139915
0.615161003801515	-0.025613981643296584	1.5303382204588043
0.008700417061986928	-0.0716902214704272	1.553745819233971
0.3729731076465114	0.26678045963962227	1.5368871283938736
0.6356966194307192	0.5141915887396066	1.5246984870938969
-0.3633628795168985	-0.5191718439758496	1.5718815622896525
-0.027028246364568933	-0.3989330411114666	1.5580473504924919
-0.3116017647626193	0.47344957572463287	1.4787587869868803
0.30235101217187277	0.5074458388862711	1.509169835348464
-0.40396448808462654	-0.379130858811443	1.5664985884821603
-0.3387397402702062	0.2632755783538036	1.500145205141548
0.03495405887517614	0.11377425162318736	1.5371947349897004
0.10240739399443809	0.5005358657870742	1.498812677934105
0.4616764866889909	0.4831373969786551	1.5206706810132273
0.12086758354037178	0.3448994158905155	1.516791960025164
-0.03509728928839753	0.28484090221108044	1.5146679730269437
0.2077285595670884	0.25082302520031696	1.5318661682403
-0.3713744986931764	0.13418485101362257	1.5123937609650024
-0.34840106683332267	-0.09799530999554827	1.5389617589661209
-0.24085319503900413	0.05037123038520091	1.528776026781618
-0.21315866925586988	0.16384832051205797	1.5179537668909222
-0.0793580612573347	0.0314340874453894	1.5398123317369778
0.010976123837127712	-0.03456524362413157	1.5520210831927272
-0.026971700753981236	0.47066967184511377	1.4948770675168541
-0.14147019644840914	-0.09782906478338535	1.5504417599557825
-0.28994961575845835	-0.27785654637672824	1.5618019706711574
0.33160099107400903	0.40822842703771417	1.5216029030608735
-0.17094503849414647	0.5176450304530038	1.4817601465761259
-0.26259016198534096	-0.16413766151286005	1.5509347537108056
-0.4113005903505347	-0.21267353671486336	1.5479586940802315
0.29597636529686383	0.3037562632751043	1.5310036167830283
-0.1774665164630652	0.4146672053174476	1.4926151972745394
-0.07327019246879943	0.38052396754701845	1.5021241009926352
-0.3283758194741361	0.3730380893358714	1.4887646011134146
0.43597853340202575	0.38007298202541323	1.5304696234643536
0.1352866718050198	0.08999312315305068	1.5453602028771722
0.22355312156447021	0.3989419710412877	1.516610802545471
-0.21388066195294375	0.3089299872392852	1.5021098442305638
-0.09484744544934919	0.14071772119324072	1.5270473535675129
0.5645126713200478	0.5109550574868156	1.5233545826825807
0.11468756531023422	0.20360027475776185	1.531840340514327
-0.2366478177129301	-0.06162757007708143	1.5412097735273753
-0.37396977996990954	0.033325206314352214	1.5232362364539611
-0.46272169765575544	-0.48493461498722273	1.5747589915002986
-0.16326539241806307	-0.19833598340274067	1.5601789699290405
-0.488430720598396	0.9567176370513188	0.11997746478325745
-0.5492094051523994	1.2156809570750893	-0.1114175635438924
-0.5243124989652205	1.189193933719003	0.4384490518558505
-0.4914619503131155	0.9934478161678352	0.24460095324655665
-0.5807946630427485	1.4307019339115983	0.22827798294667856
-0.4510514460620563	0.8162846314796863	0.3699555356053972
-0.5920866314074118	1.4058471260760477	-0.23191009586494976
-0.523076863713382	1.1604498012488609	0.3089074033295567
-0.42137501027269764	0.656243446713933	0.29084416249555317
-0.5598579780801418	1.2956209936741439	0.04569363762651545
-0.5959446317175996	1.4579356879720975	-0.04276230837231881
-0.5102304436763464	1.062772783227543	0.11229320698830185
-0.556419363353303	1.3370409216879622	0.37937721633943977
-0.6099021444631071	1.472914022159828	-0.35028456002041053
-0.5707236498404018	1.302934116821315	-0.21856269491772973
-0.5062102649471635	1.0261622029475181	0.016210768504683917
-0.5487215870418987	1.2708285717363845	0.21763596293002377
-0.4263262894242323	0.7005754735088316	0.40484707950859516
-0.48646809859810575	0.9933803458395211	0.38488459978762146
-0.5328748638414292	1.1622847093188764	0.04340351796730117
-0.389528407605409	0.5132650771332485	0.3704216590665304
-0.5945083244052338	1.4770322289091864	0.10688286843954943
-0.5728899128630283	1.3428377423681894	-0.05142985336262912
-0.4609939337796509	0.8465030795461723	0.26266758806764673
-0.5290276796762287	1.125834430218072	-0.05663538225724642
-0.4490434277056265	0.7748877582344046	0.1898273717439125
-0.5039892165767791	1.0879527730319056	0.4320686387831166
-0.5771431634976467	1.4366079386470614	0.3649035400792657
-0.5252422499286895	1.1503074231165098	0.1899215402292329
-0.5735145344628922	1.379370568001365	0.13985583584885003
-0.4682842832092248	0.856151152435127	0.11247312261157483
-0.5613084105242878	1.1336289587037862	-0.40179433631715905
-0.530383393808754	0.9569940359956067	-0.36308685747480063
-0.4311441282586213	0.47844534115868104	-0.10265646689356439
-0.497885933081526	0.8427592256710269	-0.21226615866390502
-0.48484239736617296	0.8343696164123494	-0.09392709890970992
-0.5035741584363316	0.7345984546441741	-0.43641608757376465
-0.43224624962434066	0.6585039805567122	0.1640897636019078
-0.517508436048002	0.9476286753257515	-0.24795018522805937
-0.3771652513154143	0.45509781966538987	0.4046205581634964
-0.46402967113582755	0.7581466291828299	-0.0020604638024761418
-0.3942729303559471	0.47954669046411424	0.27015566379982453
-0.40748104032175786	0.5019543572195925	0.17179068784422516
-0.479252965463366	0.5451383451589725	-0.48396671153010623
-0.518627543352079	1.0495318597526913	-0.10197257365883558
-0.4828450146790912	0.8912917991428683	0.014010465091099976
-0.48812681683442466	0.6933903834340074	-0.34452293183767413
-0.46684311122906036	0.6177368254912364	-0.24703718011856704
-0.523249083146165	0.8540550174846043	-0.45011912242116786
-0.5065843918922804	0.8259164132043411	-0.32580638677671475
-0.45251931456755223	0.6096468286591566	-0.11534983548933442
-0.5679682216442685	1.2454963182737147	-0.2962093180365009
-0.5351425164663618	1.0791718300504716	-0.22246169912199484
-0.4738561075044024	0.5739923841659353	-0.3851235576053866
-0.4587413835900307	0.8034002790018774	0.12099531090249674
-0.44378995691427525	0.6247756034039563	-0.0041434503485801525
-0.4089339480861857	0.5884962857414275	0.29070539866763095
-0.48069683376858297	0.7403966079026812	-0.1972064466465447
-0.4482599646649034	0.5257044754071459	-0.20200612441087562
-0.5485515155071231	1.1936391731254827	-0.180796105133266
-0.597144736707867	1.4060166463543315	-0.3421835341155495
-0.5038828895396334	0.9433969962047386	-0.11733723465592648
-0.4259649972132545	0.5290858803680054	0.027612866849297014
-0.5806245106184724	1.252611635063775	-0.41261699141840463
-0.45505784120951664	0.4844839361547585	-0.3340327947753327
-0.5430683213450631	1.0549313227012906	-0.3396400813474326
-0.12334372319732177	1.109413342705878	-0.43344636157348265
0.33047665864648396	1.0564807656302937	-0.5189286325971662
0.35101268150377857	0.6849795700582765	-0.4744858584905032
-0.04977663340871941	1.310890304497098	-0.47479727091443463
0.19905864281995012	1.3473230353291903	-0.530235592832685
-0.2891054916195192	1.452224614210233	-0.4445620192825687
0.46547856524682185	0.6966133474230176	-0.49931699428826926
0.08696563465267461	1.1484123958519619	-0.48137563378935955
0.012508049782006068	0.9555570599048603	-0.44097184906263
-0.26117809217443205	1.277316022661493	-0.4273556457766802
0.2638774089620366	0.7495456258395556	-0.4651935207486285
0.4146405730336522	0.7838826943299286	-0.5003873440618735
0.31056571103839786	1.2421870965269843	-0.5391806561951069
-0.5009596696511098	1.3822711185858163	-0.39226666121576037
0.23605449070910514	1.1011296928611087	-0.5055455980869646
0.43758374690356633	1.0897391067382887	-0.5450916760557375
0.07529054777065688	1.049220035662913	-0.4660153245200162
0.19655608212365416	0.9829839029225464	-0.48203894063937786
0.17598291013656975	1.2365048799098768	-0.5110321363184261
0.016744128488663104	1.4151263783276928	-0.5019858361256516
-0.13206848779961328	1.4121824237920035	-0.47129813222623346
-0.04366837895339782	1.1958040580613392	-0.46097784905528316
0.2205450788583951	0.8838560569925035	-0.47394927296391337
0.3069997098609711	0.9293748585532137	-0.49751163109699253
0.3449663331771858	1.3641829019268454	-0.5621531777111977
0.5112569787742544	0.5058668814691846	-0.48367261943421125
0.06999085245193515	1.2569440442007986	-0.49212442073924495
0.45599433405774153	0.883155800139052	-0.5218016238512609
0.09982287809586717	1.3568930501312186	-0.5112810215104407
-0.4029664939032202	1.3033161173881675	-0.4018866512828203
0.4197275740144775	1.1904965081080878	-0.5546434436812261
0.09452148942848372	0.8571699805290266	-0.44479452518709656
-0.3792864865653613	1.4123170405803747	-0.42097530378937276
-0.252684437761073	1.1629637711801573	-0.41411802757921623
-0.1489958981365448	1.2951573134535193	-0.4525342384427129
-0.5862749954991955	1.461319080288099	-0.38524040062973375
0.4394980648401309	0.5964156368252008	-0.48091211890864566
-0.02274578228959116	1.0599659664033971	-0.4474589028758506
0.4232958252102375	0.9842633864928556	-0.5283769142893151
0.36900245765361267	0.5150130870205821	-0.48299283627567263
-0.28195195353691305	0.4942547473623679	-0.509139461404799
-0.5452341053978904	1.1026905357796872	-0.4329914151776696
-0.36012792905774355	0.8777369483890729	-0.45801350059669044
0.03168290097960996	0.5090656168617305	-0.49586564837735686
-0.2751203087768075	1.118606588026661	-0.4211151885777886
-0.5178663498367632	1.3911368085881834	-0.39146085827695754
-0.37670848481592023	1.0928960687295266	-0.42835493658807366
0.24474979441918923	0.550069718475147	-0.4824977916241693
-0.13474848334175585	0.5489450448526144	-0.49619761489715897
-0.26048054542686644	0.8873382103046155	-0.4531078808238736
0.14372991993876985	0.6119931694218066	-0.4773963977284896
-0.10930111978323942	0.9801414109853552	-0.43466569120747367
-0.3903192444395441	0.6620044988985097	-0.48942164005418604
-0.468536124895133	1.2221072574844114	-0.4134652419921376
-0.126784022823765	0.8116936692631423	-0.45897237963508036
-0.33988481315393	1.1989944751740453	-0.41212408822815566
-0.024945027027426382	0.7696003388212462	-0.4612565368023454
-0.5259704801431971	0.9350240277162168	-0.4558770338828896
0.5169165943699576	0.476762598398471	-0.48309260370426604
-0.24948718385872412	0.7359395416936811	-0.47400143832340264
0.15924547567156724	0.7822862396149918	-0.4529004672617911
-0.2467151201450472	0.6061336773770539	-0.49215252605243237
-0.238245905904368	1.0111910950629368	-0.434901431527095
-0.061985009640725425	0.6351689709331022	-0.48147856523978955
-0.38709305112499803	0.9864321221817214	-0.44369374691454017
-0.018315344972780794	0.9245709858776453	-0.4392319324175173
-0.42800475865174004	0.5373088865043759	-0.5082979084411161
-0.451508134057609	0.7981349257128696	-0.47246585030778493
-0.5447325609038463	1.2916433613211042	-0.4064077713103482
0.04229929053962524	0.6486208521310051	-0.47586610931890716
0.14498025426268876	0.5062290917587292	-0.49222164017159686
0.21867181967280763	0.695006158773012	-0.4630510553015221
0.328081336661929	0.6313822734667905	-0.4680921520774729
-0.49251775144489685	0.649759305790788	-0.4947900144389781
0.07221120437368422	0.8758443229472364	-0.44285236423154134
-0.34428460167430974	0.7770252302157716	-0.4716076843705663
-0.1576204975257599	1.0701926218480784	-0.4237291655209566
0.516044531201888	0.4978339305728773	-0.21365454709964518
0.47036077804838644	0.8274308262982653	-0.2915975203088631
0.4602607446780196	0.9265004680632238	-0.43999523478395774
0.4927502823707769	0.6738002069091286	-0.2929675565210082
0.4396493595489975	1.0107966488756772	-0.15271002634243586
0.508882172891622	0.5155666074211399	-0.05595292526339545
0.5058856276002436	0.46760161133544703	0.2872904832604098
0.4376882501705563	1.0783537018661042	-0.4234300006812642
0.4957381330002199	0.58139030299503	0.06683891434085794
0.47974276377291536	0.8077575771848203	-0.5159674166763475
0.5219029292834186	0.48504011124880825	-0.3512085639681539
0.49230217920146696	0.62674120755832	-0.0419584183755698
0.49141281597355346	0.5814224616964633	0.21552351560175967
0.5094841673531708	0.5836871343287822	-0.41769696646045035
0.4642726729566492	0.7912170054540384	0.09920541225769999
0.4870277742948571	0.5901417379420083	0.32277359026059826
0.4550652932113086	0.9255500454613068	-0.2564479672519605
0.41038244564642035	1.2909581277150177	-0.5481142023335915
0.4703163317304717	0.7323306674975308	0.18602637233402464
0.4696222241926847	0.7959531230955196	-0.10859694003065402
0.40814575710968226	1.2847749703062075	-0.440189455498574
0.4212000554555686	1.1711345099482016	-0.3205107710944884
0.4961777060077793	0.686516379505293	-0.47457449941610136
0.4474657880541075	0.9968586711930254	-0.351917114083816
0.492173106220802	0.6516634199212346	-0.16228329373961453
0.4544005002931223	0.8880076661772384	-0.045624461783354074
0.5241578089783014	0.49510284574265734	-0.4791814170994496
0.4366478125202209	1.105753907909135	-0.5247978432221962
0.4968344414563663	0.49845535072261843	0.4443044551460946
0.4669801813848251	0.7927175278042262	-0.001479089208432604
0.4820081550027914	0.7666484773686492	-0.38812343053050286
0.5116104713995601	0.4782110409266863	0.03717010256200661
0.45386400376534286	0.9114044713908301	-0.1442922587926173
0.4341620439043855	1.0734794172404012	-0.27768207261341826
0.4507743190461683	1.005788514259982	-0.5104773660555182
0.4794624995805397	0.6884613095196344	0.0909031608792015
0.4231853830171206	1.185608919266029	-0.4612935329085802
0.5045233607693819	0.5045196549566935	0.1493490387290285
0.5073167666272282	0.5719948171965287	-0.28457641145349877
0.47520106919820626	0.8197155218903416	0.21822561273749425
0.44852384034509624	1.3904600308904707	-0.10306907121122415
0.5079873870994882	1.3919032539161815	0.413410272903341
0.48830353383184677	1.1656392742408248	0.2778431832240816
0.43910983209394866	1.4695607223179	-0.19727344536182378
0.4898145689755665	0.9709769475532629	0.3214933876452837
0.49499250650929916	0.6109981470717405	0.4229261106492963
0.42634698973568996	1.2532310692334419	-0.2742582983729579
0.4870310656918564	1.5320610675446498	0.20933668326197297
0.49147456229551384	1.2945428704034323	0.28518752867707203
0.5249747180468343	1.3813726083557234	0.5626719128900581
0.4973180627171904	0.5003365422031294	0.460484001406691
0.460188840147731	1.2962943996204255	0.013057142342394678
0.41431041543481245	1.3461349373015934	-0.39341546502400243
0.528905132844424	1.5634334544135415	0.5682806485713422
0.4911147064824145	1.396694921768102	0.2660446671834145
0.5130480695028004	1.160604341052376	0.49364903390828563
0.45773725924841413	1.1774043737064082	0.010394423933429153
0.478210684657266	0.7206865649925509	0.25990377836062606
0.4664297818311525	1.3907793680742289	0.05247367592104294
0.5050987750975888	0.8938460052975071	0.46639773573479026
0.4757037592487907	1.1142871315678815	0.17640929693209625
0.4251610070759175	1.396083113918081	-0.30696089864113746
0.5060117413735716	0.9999728934918304	0.4576918054734042
0.5080841288730632	1.5207402580187497	0.39405119316249704
0.42917467786563135	1.1598726335526393	-0.235050034298732
0.45971050931246427	1.0349723740413717	0.04987208955007352
0.5093901532138605	0.7801291610929927	0.5215165568674682
0.49278092661511363	0.8179379100881675	0.37126363828338754
0.4610978040239093	0.875745961055389	0.08689123689478305
0.43811756819397674	1.3291648231294186	-0.18388370028381887
0.44168067426861535	1.2244073639284658	-0.13649786129940017
0.4755347113018047	1.267334757195103	0.15094478737691244
0.4940303817472311	1.073746841968756	0.34201370896447547
0.405111864861104	1.4053812766181544	-0.4826347650223323
0.5059134722785952	1.2704051786623103	0.41443816873404243
0.4607673950012355	1.4736363146308933	-0.009720089487943893
0.51821367107617	1.2793157093229177	0.5199231148313169
0.44414274761289113	1.1101326105143094	-0.09718722389401419
0.44820832236904407	0.9688784139817213	-0.03971306573063401
0.5170055517748667	1.0725671650313766	0.5418402958370425
0.47796533072224473	1.3853828333275688	0.15355736714302937
0.477290808323513	0.9728327298185415	0.21237781497748337
0.4750901415064222	1.5124308946360943	0.10865431593022888
0.4971662677520098	0.7144087576546586	0.42560166905566726
0.4840230699178492	0.6420625901656061	0.3227372813220658
0.5191676925903228	1.465061826476668	0.4990908293986456
-0.027350189722980926	1.4735607922431762	-0.2840709360501799
0.28448771587284283	1.4797531190874484	-0.1740213408619539
0.3905968983351538	1.4352638031575173	-0.416258912242218
-0.11094765496547372	1.5136282462076112	-0.06311323335572532
0.4974094407303045	1.5893909846841734	0.5338182689851603
0.28262784972641897	1.5375330499781936	0.1723548759375176
0.35799145515838243	1.5659597542492558	0.36059339816357755
-0.44912639059342174	1.4720426530483135	-0.39175914007429546
0.3686986767682794	1.5220549001096477	0.09956694479186619
0.3792765330367409	1.4599163424104158	-0.2709334031226555
-0.2487290066791687	1.4767786357371473	-0.31649637156891836
0.024516616963235833	1.456852656222967	-0.37223561207658695
-0.15059312247744489	1.465967970256527	-0.35844898997207936
0.22918749395917054	1.519186391499208	0.04974335461906209
0.243781677691098	1.4963542148811357	-0.08389069737683295
0.0403514232729016	1.5294699165820924	0.06733383234713304
0.35898757893413324	1.5452737073427045	0.2366629152837046
0.4570348021097386	1.5314322003497576	0.17649763831782528
-0.5109511294046118	1.488253372990601	-0.30890742072420446
-0.3090990670610178	1.4993740648883365	-0.19498190502830082
-0.5905037154217547	1.479451085334487	-0.3803338767780917
0.1023351918971293	1.5414474428768876	0.15371281963694164
0.1348191904502449	1.51728235829239	0.01625942965951508
0.32927563078510985	1.503997349904905	-0.018033197875181536
0.23706630330074063	1.4222683394638576	-0.530143811054208
0.13873464365605614	1.473721903750078	-0.2442871895422735
0.1259908237419793	1.448038591156304	-0.4014238704970664
0.24530550353852926	1.451950281895594	-0.35005906613883153
0.0044999184011012446	1.4366002133364297	-0.4984745217949475
0.39056804754804986	1.480651406031734	-0.143836888786255
0.46071828617060917	1.574082859180153	0.43335941014323565
-0.10475061597195422	1.530665383526029	0.040596657843621854
-0.291963752349992	1.4619583562536265	-0.4155563886547978
-0.19393915682544	1.451234832577903	-0.45701196815123585
-0.011193242463103789	1.4987006901170925	-0.1293982753392419
-0.18044789175006	1.4893803311771185	-0.2248991592383058
0.46173063382146	1.5068015628336855	0.02975532876910031
0.3517774379239101	1.4179352519409312	-0.5293423365285652
-0.2118085276705444	1.5135287843155416	-0.08728304772124953
0.4732078291020499	1.5522318961121027	0.30512298079095074
0.19198705162630436	1.5591124831982983	0.28069629699837545
-0.3729139454221321	1.4850433801414054	-0.2959131508395098
0.09492651204866091	1.4917584780675757	-0.1462654220041392
-0.0039695703265374555	1.5157356545140968	-0.02546148583939271
-0.0847690289964971	1.4474500281742273	-0.4542145717583816
-0.1955615014100105	1.521682682455262	0.23663640828526547
-0.11952442434013491	1.5289754217075133	0.4568140740143889
-0.14227392276008557	1.5275035061101996	0.14888778664234695
-0.5500242610450179	1.4852434650054671	0.04295746829336574
-0.5715507874657598	1.4835095463341927	-0.13211716347411753
-0.0021696077478400525	1.5418698628417715	0.23789921492916424
0.09132829157060522	1.5507710221527125	0.5312243690047986
-0.5025998480519509	1.4909914481930933	-0.2286481832808651
-0.34809165668513437	1.5051671425765043	0.4380461344843556
0.18384206003454004	1.561104318312335	0.3012775372575661
-0.3577678426076612	1.5049382566360505	0.17166985274802676
-0.16382596720899165	1.524619479195563	0.36499927641912683
-0.24732931796473784	1.5170682400146098	-0.0328004799920521
-0.02300170677045208	1.53931926368763	0.3659639372042651
-0.43550839631767785	1.4972063156854332	0.040592177445008155
-0.430246679804124	1.4981800265778336	-0.10408273599472845
0.336340166758305	1.5763695592962141	0.5249784419610556
-0.00212457538890629	1.5411247496806253	0.4935257174442836
-0.558479060635251	1.4834676925953867	0.34741828221754606
0.2328984177624289	1.5655433333723077	0.5340111186637657
-0.4736223132379417	1.4927685351761966	0.19691595574069481
-0.4765901848263019	1.4917910052780308	0.4245384926639685
0.16913662933035628	1.5591465226836112	0.4453126588118966
-0.3257165758741846	1.5090842627015717	-0.1009724058430128
-0.297540218105814	1.5107551088009257	0.3322947447629627
-0.6071015167985504	1.4804919892216801	-0.368742857536183
-0.21922287399665855	1.518479906567981	0.4863375797514494
-0.217517324006952	1.5198799180105926	0.06975255352006692
0.08917894750980032	1.5510357471199943	0.36447207183629865
-0.42946955810705056	1.4969756086388033	0.3341872682114186
-0.11171667313942488	1.5309938039342454	0.04661220194823521
0.4771913780924311	1.5910118370893807	0.5465075340614767
-0.5956356710273055	1.4813964695745918	-0.268989915791281
0.3030436948891766	1.5732164377443676	0.41480591556081775
-0.5893627868507489	1.4808179666388477	0.15150607822636983
-0.03366363197690822	1.5389416706589718	0.11519903639081121
-0.10175505492903074	1.531343886749542	0.2818295930548476
0.035227266176013655	0.6722762579511535	0.46949362340756734
-0.36262900042119267	0.944098923912255	0.4478760459105414
-0.38799031010704393	0.8156187943942287	0.43891477647499066
-0.2843019042983232	0.872855388064394	0.45120989551736673
-0.202554691764538	0.7471886226800688	0.45202062291917133
-0.17733214819376042	0.932712456425711	0.46393619198720587
-0.3084293926111927	0.573175205043706	0.4334556111912456
-0.46327603813771284	1.1882065751513873	0.45152677989587536
-0.044436945398187606	0.5943549411836655	0.45828173549543605
-0.2964587526804892	1.1949569256328922	0.46686946864597983
0.20413127774411727	0.7091391941165719	0.486589960197482
-0.15211348413058776	0.49971890456160556	0.44368311176550723
0.28186973787189157	0.5613079209475602	0.4858876794249299
0.4409266304804447	0.49604206543742796	0.4967874826071315
0.09604946279393708	0.4952026176812709	0.4657502459472232
0.1822204214938461	0.5693912240275679	0.47735275165739266
0.01907167883902239	0.8442643031291139	0.4769866246949187
-0.42478498806146553	1.2854333315394924	0.46004255071842326
-0.34425358408823875	1.0478619293415816	0.45492399779650633
-0.1439423804491948	0.6338149104307305	0.4513915985239354
-0.5326905317130983	1.4241707779237516	0.45756080398104526
-0.24048345350795475	1.0923067961599449	0.4665611799130976
0.12011618299199672	0.8042224021829826	0.48398480990224974
-0.38704570080993145	0.6883601275821841	0.43238110604067376
-0.46632280992821573	1.0635974130006411	0.4447722075713312
-0.27457572244052275	0.44891063619685945	0.4300351464145189
-0.04838678993192033	0.7665422550226514	0.4668820117335439
-0.05628310824013178	0.9836595533475634	0.47746437568226596
0.23467406423426126	0.46444011396785023	0.47660830603700177
-0.4645478492236139	0.9594038203990417	0.43951274463747525
-0.5269168425130485	1.3161161966946235	0.45245989550110577
-0.025808602762640017	0.4678161179745066	0.45337471299405535
-0.26207492002169247	0.9907208111930625	0.4593374306264417
-0.08956260683395466	0.8581514752360052	0.46794608345153743
-0.30386081043945967	0.7443830804938287	0.44277048593028034
0.15903296014254178	1.4243465673015	0.5322167900101826
0.42591010171748	1.2201687170955144	0.5465053484591248
0.42088612327327246	0.707780063453345	0.5093776889766871
-0.1814565879222239	1.4702461830952456	0.4986649837624264
0.30429983855666604	1.0449201810672069	0.5208387489212353
0.004075962529508631	1.3656567698837807	0.5112654687123945
0.4897742100559244	1.5121844053177829	0.5742629464593748
0.2818402650813226	0.9280536306799764	0.5100652104922035
0.5051536138995735	0.9622461155594133	0.5366611949614832
0.33899057887538386	0.6399098441888789	0.49567357442170074
0.11287059719476401	0.8931994200511713	0.48930005694223905
0.08301227004012204	1.0508207407313854	0.49732450198348815
-0.10635512506071698	1.1534834990765999	0.48417165952356067
0.20842625698939587	1.118041364334502	0.5156894029258493
0.4952309211826977	0.6314596062216777	0.5119699504307467
-0.0732821815264471	1.247662959391748	0.49447334727845776
0.37069905053959057	0.8011478563560933	0.510615614478888
-0.008027317026746951	1.132397684201179	0.4933017606131066
0.10553984373163096	1.2849786636417857	0.5164799290464938
-0.24845476332426802	1.311532611145993	0.48008608063896396
-0.32376236041556694	1.4018664459134083	0.47839022484789895
-0.501900994593139	1.4751263306418405	0.4643525924902143
0.09436698747602108	1.5124582024768964	0.5315133205372368
0.2765925808051485	1.4262986524932226	0.5450719900073513
0.3944271985802569	0.9500290909732593	0.5238121973077512
0.31162924338555253	1.534162700241945	0.5565631545034901
-0.02824871675848466	1.4642743678783412	0.5148103107859826
0.2505596974510958	1.252930498389142	0.5298777644470164
0.4842958636980311	1.4121782255671294	0.5665300007426936
