# .PCD v.7 - Point Cloud Data file format
VERSION .7
FIELDS x y z 
SIZE 4 4 4 
TYPE F F F
COUNT 1 1 1
WIDTH 818
HEIGHT 1
POINTS 818
DATA ascii
-0.22183605738927678	1.5924241170610525	0.34865953142592926
0.1974582528113018	1.5603178099162427	-0.3413795713865467
0.33860607914898067	1.5428795401549489	-0.020217768442157433
0.21094472140800907	1.5498223760505014	0.42631344468291726
-0.2512545393732791	1.5931288857375376	0.5262800703224266
0.10949095587689299	1.5649256289586462	-0.018976065734008684
0.37643105077001465	1.53458161563828	0.36842171237070925
0.1669815958970474	1.5559309688066467	0.2697602249352538
0.2428409884271328	1.5514446230283574	0.03453378092295082
0.20886514710796342	1.5481225445458036	0.5849187426803808
-0.336687403257396	1.6020133304088375	0.4713284820269704
0.13718531399988085	1.560962477448106	0.08924942304628694
0.00666320203771576	1.569142737651561	0.45548177610700763
-0.060888229148606816	1.5789064158707822	0.18341615073558692
0.19976170293201082	1.5587828315955758	-0.2317635405421046
-0.18833851615647232	1.5905665063199785	0.234485397699129
0.27399699648321607	1.5544390206971874	-0.4658342240125495
0.019652041866856734	1.5699646829460674	0.2824738291558156
0.2801935849862889	1.5450554909800909	0.2676364748196067
0.292804727690185	1.5506776321147668	-0.30302463243808875
-0.321617951771192	1.601873949345918	0.36184291609537084
0.12034687313384668	1.5574137706822762	0.5208105782876908
-0.17604469610138795	1.5906954331689946	0.1249122853014045
0.026324537616427144	1.5719732941650497	0.06117818062604626
0.19999408773515454	1.553902267283561	0.1737661956994468
0.17299608218334184	1.559762726011794	-0.09843097357415721
0.1200263207354545	1.3045051178169198	0.5812178169896836
0.050645719225566224	1.0237217709663613	0.5445926166665451
-0.028626213692850712	1.3196889029905157	0.5576684018128552
0.2594768948904034	0.7815586575007366	0.5580109998844505
0.38871918715037074	0.8322535017423499	0.5841752115769652
-0.19186177959160453	1.4117047199500357	0.5385177801342116
-0.13585111335058767	1.2504112161238001	0.5335376799713809
0.3331405539773061	0.6838765412619742	0.5616524421712272
0.3795041377643394	0.9679231859006711	0.594712540447109
0.32795020986449525	1.0614283668794786	0.5944028596429729
0.22945725232290604	1.0439974327494381	0.5763516669759668
0.42065076947565755	1.1804134914324744	0.6205268415598832
0.35879135238525095	1.4085877294382314	0.6304827220216451
0.020312808089139652	1.4113727850120126	0.5740305872113356
0.20695357243686582	1.1759031045297765	0.5843277805376476
0.23993754827403244	1.4744899810888004	0.6164413624095766
-0.2732504178057868	1.4732912015816049	0.5303680803988261
0.31401003521457266	1.2785232788157774	0.6113993368836487
0.06540563422170166	1.2010299438919048	0.5628538893959693
-0.39174015475989726	1.5922643499273679	0.5211135142080291
0.07252111947866577	1.5450207280485067	0.5946772025752046
0.4117510393859572	0.6079467429504422	0.5680595303958151
0.20785569674373175	1.3631875397542585	0.6011560261861371
-0.1987926685145775	1.5814348696728253	0.5524707234820732
0.279947460557455	0.9317580230524416	0.5748149312768069
-0.09444465716320423	1.5070102260394618	0.5633232555317079
0.3521874206411981	1.5244044985511174	0.6396896079830529
0.1435071018412011	0.9831853491514624	0.5565386156126102
-0.053260460730724664	1.154611519798786	0.538842148948035
-0.0907485206560253	1.4035548393590263	0.5547300157345653
0.17756764752635	0.866863309227878	0.5518861235468686
0.12253634548443582	1.1050503570015486	0.5638774249097669
0.4520151067863059	0.5128751553701416	0.5663385095845437
0.4312001153426936	0.7170464124067883	0.581032540521347
0.30919617944686545	1.1659443492954058	0.6005681236035404
-0.30277233884750365	0.7839135165208612	0.44014495398952563
-0.26811156699179933	1.252218991918095	0.5064513271731644
0.021043274578335963	0.7318162343159372	0.502804248493607
-0.04311928972810394	1.0345895296461425	0.5271696516981221
-0.14512864249685092	0.9525701507382621	0.49505098972491707
0.028634492438530383	0.919733510677645	0.5280608470410831
-0.07103380514988546	0.8549845377394102	0.498614628847223
-0.4351191124067738	1.4391152771532119	0.4942612403280724
-0.13864436384773746	0.619879211366636	0.45459488575950263
-0.37620172480073755	1.1546784021381113	0.4710808908209716
0.13496847124838196	0.7198723218039564	0.5256521502466447
0.08265704442975681	0.5786746820821278	0.4967130308404133
-0.32964726143626755	0.6167410053817683	0.41337574526653886
-0.12685503507894938	0.7742392332842956	0.47652833224430746
0.17573327886610643	0.812520465435372	0.5460173291413372
-0.16301261026179403	1.1389569198404037	0.5146701000355003
-0.3292367186352291	1.0467209106488016	0.46754141625716694
-0.03927213092414356	0.6209768939357894	0.4759724973121702
-0.43923286820323615	1.3224847264345472	0.4787135290209093
-0.41374745407147506	0.9197428100410534	0.4335084719103395
-0.22798607449879424	0.7141059921581935	0.4473499851005972
0.20485362837297813	0.6341789916164714	0.5298116979070808
0.2629870573767083	0.7191519150247232	0.5529238990562534
-0.3018316169619809	0.8954562046620536	0.4543745766540471
-0.20326894129306536	0.8680821062570954	0.4719983027341483
0.33562677382019107	0.5472084393561173	0.5468246485165115
0.23939445970790704	0.5219608838751488	0.523080861880714
-0.43165117122668917	1.5782358602065987	0.5124994542981701
-0.4141544946933122	0.7314192633616563	0.4097363043601931
-0.33605349294244535	1.3847649474644441	0.5085997044548641
-0.2783577036776372	1.1404312282651148	0.49020196703694074
-0.2269783082017858	1.0203611213044368	0.4860826270073214
-0.4405913848996642	1.0392598550113734	0.44280239935117716
0.44302927887139065	0.4897197528873262	0.5625503100836305
-0.019133347662219104	-0.5670836721618306	1.0807904602644334
-0.39727177296496685	-0.5169047117216303	1.3556852331982694
-0.29756456763964884	-0.5602477005169756	0.9048137491028804
0.2708728100793943	-0.5718871580616371	1.2931943116034639
-0.358866991745973	-0.5662105490639869	0.772226305549318
0.04492695774308459	-0.5600460848562594	1.2294770639087744
0.11875929125469109	-0.5578207000656975	1.3268842700248302
-0.02184436381325521	-0.5428411980533099	1.3828731831353618
-0.29264752781594394	-0.5193199378416712	1.4237394877583622
0.08597260683816496	-0.5713118110813104	1.1265166012208714
-0.5098806504819006	-0.5484396882150172	0.8535005114724851
-0.42126875319036333	-0.542407644639255	1.0126433411558957
-0.5365211295561769	-0.5297867808340773	1.062837547884381
-0.43387713654340626	-0.5294748208837432	1.163299283852701
0.12847833000855408	-0.5490868422248885	1.4457757412980359
-0.13220341138487726	-0.5557472465636881	1.1168969001726459
-0.28990271629320197	-0.5308065716695898	1.2819793001580453
-0.12158506158314157	-0.5366781872542014	1.366507055421284
0.375423543765017	-0.5690707318606807	1.426920720923026
0.23374050371024085	-0.5615394228049747	1.3882999254661168
-0.16769168122399566	-0.56919246353779	0.9145649675949958
-0.4074444149675341	-0.5548736305209893	0.8689973788633782
-0.17896031201522417	-0.5423881583705648	1.2407909829705155
-0.28229580292641443	-0.5439447935859585	1.1240381865668092
-0.4841842918841786	-0.5160587427290445	1.2845703205580257
-0.5348953089976235	-0.5561372004436709	0.7332455609116759
-0.5013637955951858	-0.566166095632867	0.6387597933760549
-0.4769037014137461	-0.5057188149503539	1.4213502967452558
-0.07410700951049737	-0.5482545985500054	1.2656924884355525
0.14386562937219674	-0.5687063758233206	1.2137078563714743
-0.5475217421986502	-0.5375367993707098	0.9551036855921766
-0.2099283616405231	-0.5561163059267303	1.0391552107528863
-0.09749928516431115	-0.5686549465728508	0.987338776064666
-0.5345622258071552	-0.5204154520582913	1.182440740649067
-0.11902427982739545	-0.5508878193289213	0.6138710903397948
0.4220898809281074	-0.5366820128576875	0.7522873268199897
-0.3930826378276969	-0.5647786675503755	0.6622859655777679
-0.19909512222078946	-0.5607100821772291	0.7300349223066511
0.34226519853755843	-0.5471971876793583	0.8808929429563966
0.338813259842374	-0.5588987571204317	1.0855218651788119
-0.1341061577264064	-0.5672668100894792	0.8929106077230399
0.37053444959423365	-0.5725787751978136	1.3505102185352933
0.4588335477997021	-0.5576499785002198	1.1498897545158695
0.12825490753327248	-0.5687658870356322	1.1084674378443515
-0.22775156517440456	-0.5533715387071674	0.5794977336048602
0.10488551153136823	-0.5474233065834707	0.7138701542242221
-0.5206754515701444	-0.5665039406253782	0.6008961719764156
0.20329726332214784	-0.5553531200213525	0.9251293696123895
0.0892582717522041	-0.5557982851552059	0.8508469952195881
0.3603137767699422	-0.5669995066875757	1.2443943486628606
-0.017294983776690927	-0.5537091755353853	0.7371016073879605
0.31596455862883144	-0.5346369425215415	0.6396297406567873
-0.03017531269599378	-0.5615326232501288	0.8662955069903564
0.16265243366615226	-0.5372815217520152	0.5759815171054444
0.2629576550122382	-0.5452557517298657	0.7893910872041748
0.4694592578002155	-0.5709396098711328	1.3927696539585679
0.44505745353724124	-0.544226733010204	0.902375147268169
0.2683788856320072	-0.565803887386773	1.1569956992740489
0.012126391676843628	-0.5704719307610099	1.05499697601268
0.42616996986149636	-0.528893432211925	0.6173702557086583
-0.32116811181225474	-0.5678743965071902	0.7688921754566588
0.07241952005281994	-0.5433786106279278	0.6188888821850779
0.46395217357385193	-0.5637484599821492	1.2615197381754073
0.4454604085193266	-0.5509823857217224	1.022239456911955
0.2299467249036478	-0.5612594106342783	1.04886993674257
0.10597438722030124	-0.5608722202291936	0.9526983173002623
0.32943194788844327	-0.5536506770255605	0.9858727129994939
0.21145622667866865	-0.5420651424412744	0.6958125447012312
-0.22454131590404575	-0.5676646578984623	0.8347965893614396
-0.34937150281630763	-0.5574108562181153	0.5633694441859549
-0.28609975840779694	-0.5610010369699767	0.672500504174824
-0.05717584756707685	-0.5683387103053041	0.9673090910191718
-0.11557496187322756	-0.560826481820982	0.7922689880246128
0.4657917567959456	0.10559201447593981	0.7947053642729284
0.47281810530464363	-0.2843105992463403	0.9431552357049439
0.4701311414474109	-0.01528051620968597	0.8868101728937581
0.4564558588391657	-0.12574367561659092	0.5948105642791025
0.4553780115512036	0.3615087522450171	0.573549568872668
0.4613121867914435	0.16516696818181703	0.6993945371568416
0.46470777528708046	-0.22904741625372554	0.7704075506225582
0.4694505675720164	-0.41555053775351314	0.8708824901995422
0.46113875279633254	-0.5089459883570695	0.6933127623294663
0.4649399781912695	-0.369573352571645	0.7748621335419708
0.48256918141957095	-0.5090047562148268	1.1502908004756367
0.4745651930979793	-0.5206784036213422	0.9795740521612792
0.49049641761561974	-0.5642557571281112	1.3191342719840908
0.4764119401566753	-0.4192299089471512	1.0193124209498494
0.4681343463457506	-0.5361061017331771	0.8423893919066039
0.4751186299529415	-0.023195659830434368	0.993134411000739
0.48708751509565207	-0.4338267902904683	1.2469046706435223
0.4599149125997882	0.27416993418790087	0.669984745505694
0.4868575435258837	-0.32647929509108775	1.2423803572165772
0.46481975555701066	-0.016335318910727915	0.7735474950542529
0.4581535133100634	-0.025586911863610597	0.6313651447906224
0.46727363675483197	-0.13383116437072126	0.8254581379428486
0.48027611305275536	-0.26338242545026047	1.1022623234257896
0.4555046179075917	0.20859931584971822	0.5757086466722365
0.4951984745434263	-0.5358728017537623	1.4195003646633981
0.4800733107377263	-0.14173319704199727	1.0983679293574262
0.46153684466824724	0.05982389215700833	0.7038126295873754
0.45621984898988605	-0.36143043600606145	0.5889446045646239
0.49196842595466694	-0.45144031491609543	1.3509219768143506
0.45916820404134845	-0.2228582497127803	0.6523047060809628
0.46589075650013345	0.20741897526651687	0.7971764503124992
0.4569044943505264	0.10382746594008856	0.605188888433984
0.47618504814314677	-0.1986546504134037	1.0152541217041318
0.48167484338670163	-0.3670218768156615	1.1317221296756446
0.45601902770277114	-0.47884459521522454	0.5842471825016675
0.4549804116250699	0.47467085311412666	0.5654713403935914
0.4996977162590679	-0.4483063810972445	1.438974629655274
0.49023383687774386	-0.3714979194044845	1.3067452404056465
0.4640291935727839	0.3427855770081974	0.7195875152940914
0.5236768397780338	0.03272823045458383	1.4762963692145765
0.4853948866878764	0.32816254121946203	0.948144959792342
0.4950482895753694	0.32103920751236054	1.051638844844635
0.5095690959649518	0.2860337842572101	1.2180192511916312
0.5153106017188007	-0.11718550013393243	1.4553797667516708
0.47326872807801146	0.07250983238889779	0.9347332524435137
0.495913275591412	-0.06444686195330855	1.2304900251252031
0.5155908040082908	0.4307518227230602	1.2168519368753699
0.4879913780476327	0.013001387000559408	1.1140088964999366
0.48439146785788334	-0.23768226438419332	1.1870450336679685
0.4776769708877108	0.47926888473759255	0.8013280012392184
0.5247262517397132	0.3578461803479181	1.3439472864284217
0.49827490727119045	-0.1695512291032693	1.3013538752861198
0.5458804582999377	0.3438579659125423	1.5700264286828503
0.5020113790640973	0.18286773078663832	1.1849091964437228
0.5101036815064962	-0.30466729704449114	1.483860713041683
0.47794095203527903	0.38867555588995933	0.8439909609894983
0.4899903008683059	0.48783997883506414	0.9255584978828976
0.4739972552251947	0.22073827807877364	0.876992143546087
0.529615793744133	0.15299762357564828	1.4850417047343076
0.5259779543133182	0.4853259714979368	1.300787616452616
0.5020349149734621	0.47376086801428124	1.0569759608858538
0.520582566001784	0.16451236814649445	1.3860600395829041
0.5105991374368666	0.02000114079461487	1.3459508712201143
0.5371265461029799	0.3809397246943365	1.462682739088086
0.5087138583902231	0.10633565113745973	1.288309769413633
0.5488412834211326	0.48948685315329155	1.5366373578173969
0.4651604172580054	0.45663947927650494	0.6811794213816296
0.4791114752314974	-0.0870477583513646	1.0657802069081812
0.5333838346891617	0.264567110787433	1.4750520972276167
0.48511885406681493	0.2145471782190466	0.9953383616553997
0.4993751363954701	-0.29103415595944687	1.3663213835468349
0.5400165235129233	0.505579336787715	1.43780577243624
0.4863132671140023	0.11648433250463196	1.0509652649001326
0.5174365689246959	-0.19956411668725846	1.513779912446593
0.5173821660946885	0.2504547153254323	1.3149199722049847
0.46534120822552394	0.2396795894091134	0.7786591728028482
-0.030860458927742963	0.4939531787106185	1.2109443754812013
0.36170808851229763	0.49401431590090056	0.9329825978400276
0.3778823216175859	0.5169125425530504	1.4454117036458805
0.36422221073655225	0.48648291912898317	0.7588660454541281
0.24046710384441503	0.508674422184346	1.354701350427759
0.06630076926030992	0.5039229318456535	1.3699222266766358
-0.3053284019151845	0.5014699401978239	1.5782545537039079
0.2184608868488093	0.4858604291166724	0.848349782512115
-0.15010322249554714	0.5030591683370168	1.5041562575646192
0.48597603486535373	0.5069658059499029	1.1408964329709126
-0.2705333121916359	0.4956598732263593	1.420552236571851
0.33624338610856463	0.5001874761808727	1.0923532130481548
0.4684246862718814	0.5222671666742841	1.5034999672730256
-0.4050634645180024	0.491279901315761	1.4160678976727161
0.021884575243736368	0.49176792421848753	1.123408554786015
0.13652470810042389	0.4913187044234095	1.0315493485889153
0.012521820736620183	0.5096185825026133	1.5385159043905736
0.1359064417688915	0.5127361316748255	1.5220459002291484
-0.08423998687313601	0.4975227196448752	1.3306058604926916
0.26630844263091863	0.5176583995297555	1.5418763107954494
0.23869741467500585	0.5026305727441652	1.2176701331924142
0.10904550311623853	0.49857671563604883	1.2171762278615528
0.4606403848023896	0.5008388519771607	1.0187337553090394
0.3746494277868633	0.5057371216003811	1.192005187662632
0.4438050574430703	0.4852738900119339	0.6745690440279757
-0.10295932122430768	0.48762952771925394	1.117558793731436
-0.2244527177769083	0.4911477692645598	1.2845178585527879
0.24487799385376022	0.4953651059460072	1.0470292456794945
-0.5168882963863716	0.4942277739019208	1.5630958628312914
0.12812866877991733	0.48642067681225987	0.9254513782917809
0.4302818886670997	0.49197306752771663	0.8374777025074157
0.4074604004850931	0.5116164555284451	1.3031824109973202
-0.056564692451462395	0.5027520232216519	1.4305642700052559
0.513108585805026	0.5165593941212175	1.3411011688202987
0.5456801293770636	0.5283560225514112	1.5878436137846375
-0.13630988601102761	0.4914064090359442	1.2277114130301707
0.3561918798806457	0.5227134334356954	1.5935784964559416
0.008787645493988513	0.4866689281214376	1.016057443136615
-0.16084495421857278	0.49795361335661104	1.3949790584868198
0.2520514199757487	0.4910762150366493	0.9437894738785125
-0.32169320652097805	0.4901956568380468	1.3319309117066371
0.37434753742848004	0.48634482082499547	0.602280098189067
-0.2872295495582014	0.575584574580085	0.5247954967160142
0.21723463840899326	0.48534123969146636	0.783574279870285
-0.3990975122657867	0.49705888011729504	1.3539265335694408
-0.2322511388977211	0.5238909122534818	0.9295886261692343
0.11435103376257148	0.49797529700240667	0.7827150515681396
-0.31269435305017806	0.5205767801871694	1.0476063154278268
-0.4699631522651138	0.5732949635167551	0.7457513635703474
-0.250273144242171	0.5536436948270346	0.6816710424781224
-0.1301388507029365	0.5392816593888266	0.6791620330802193
-0.49443041892075784	0.5606400686237009	0.886430950203095
0.12812476512939086	0.5248166601647434	0.5261285224015888
-0.23728555446837402	0.4975726096808651	1.1718871658811492
0.2742566271975473	0.5032188918453637	0.5602125940454376
-0.3886070179394205	0.5764468474837778	0.628192411890775
-0.47445669941512764	0.5431019150643258	1.0223169045793692
0.06641853142761382	0.49047705415255827	0.9027299236799307
0.015242339799177742	0.5348882108123848	0.5592865983749191
0.19179896157853935	0.5068130351626353	0.6182871429238523
-0.13416570980576853	0.518189823873449	0.8733347459516644
-0.5310095719972229	0.5373014621258273	1.1365089627044
-0.3142808068139377	0.5520937188917242	0.7657964652172808
-0.08708206787729403	0.5542306460804084	0.4974607952089682
-0.102903199301397	0.495391912254095	1.0441638011624146
-0.46058304084676543	0.5190763893464269	1.2232563427963954
-0.39611577231067935	0.5240129780697573	1.1081585566276975
0.06230727724969654	0.5181708801229149	0.6580838745655986
-0.42916639448228766	0.6066848718692114	0.4006201680889967
-0.47728923628238173	0.49896189052521916	1.4225383851676414
-0.34278621711258583	0.5431120118780826	0.8778569735879044
-0.4273969575226782	0.5948179841776559	0.5054432358560601
-0.21558925536314894	0.575900851605191	0.44340058620338224
-0.20027250250833087	0.5346079085163579	0.7981080013337847
-0.3294060362614938	0.4995099755812994	1.255462010353403
-0.2056579482186504	0.5094486185510093	1.030364104901353
-0.5574512447261404	0.49729999418705556	1.5253830341692791
-0.018795810286199102	0.4946998007410793	0.958171636706939
-0.5119514590437293	0.5145244196467444	1.3205316822498916
-0.028783574834682822	0.508224169286063	0.8474475879620667
-0.18508689909609785	0.561276046083024	0.5415318993264663
0.30481764579244625	0.48441147161964476	0.6959094315212067
-0.040448084686190953	0.5219111367730398	0.7370991354203927
0.18684447904943355	0.3710927318325485	1.5720933822332235
-0.2810032550311985	-0.1782069589059924	1.4896220189353793
0.14705140094103028	0.49852443795440576	1.592060264614723
-0.2095588127640532	0.14504938308858606	1.5393023221486424
0.01047170185600363	0.4263172389618043	1.58164148902481
-0.5623797321011355	0.3698497885246609	1.5761154552414003
-0.4992527564645186	-0.40615838662390713	1.455533163559987
-0.22059851314196144	0.46314867869483817	1.588647644138551
0.15881078268939058	0.25945040631961613	1.5549543021743426
-0.46744111891362083	0.27482103722008927	1.5608585599247278
-0.34668789529762273	0.03512642660982153	1.52304332333554
-0.18188690604199717	0.35655787190674715	1.571915732226885
-0.4123912704178681	0.4338036923291728	1.5851801164378752
-0.5421532088445635	0.08217964265139596	1.5314328515830424
-0.5135687694128105	-0.07605843845909317	1.5067561806530345
-0.4365069239000009	0.11637132228205649	1.5361358823226396
0.3943508508408583	0.48786402812232965	1.5890175000637883
-0.04086560250192901	0.20454128806042077	1.5475704639069998
-0.06502057724379103	0.3024589247292206	1.5628767529151555
-0.39198391746354516	-0.3060410518584099	1.4704409485296543
-0.1802443756380722	-0.11168399848727585	1.4993616380965664
0.09052806173028864	0.10169025683839959	1.5308965882633856
-0.27970834985067183	0.24524125995531754	1.5552196950308432
-0.30871121042227073	0.34595291634983655	1.5709861333754276
-0.3944857708125902	-0.10777012844146079	1.5011731963306627
-0.46011421946997877	-0.21717501907507775	1.484592246080571
-0.16134836122661825	0.2579423210348323	1.556521658816517
-0.5216421111665952	0.46032654342904733	1.5899038831330436
-0.1740195638783692	0.01640928945592408	1.519172153170441
0.2862345737917081	0.4824395935331885	1.5887852818337114
-0.09921747058096554	0.467344478841549	1.5886148908180346
0.35007718062025	0.37749984358787086	1.5721677981832236
-0.385011009771438	0.21318769918217742	1.5508459906829493
-0.042976240647345995	0.05089425471372715	1.523777755708957
0.06839441259380412	0.3296055946180344	1.5663320897005397
-0.30978917377512943	0.14711229082468194	1.5401857591488577
0.5071400382677332	0.4956143076553763	1.5895837754331028
0.27955555191293224	0.2997635148337902	1.5605207935976912
-0.08760967514936412	-0.05434532248578419	1.5077240345870333
-0.5327286845054084	0.19412415808062014	1.548723432978
-0.12006551487488736	-0.16529532570267863	1.492932339749786
-0.1050938157181952	-0.43025207438302515	1.4653821181145017
0.36378512936781193	0.07606065841162055	1.538442149843225
0.2744253105719169	-0.20922013509073698	1.5044504436622552
0.4962449772765169	0.03040795057667271	1.5390245887005862
0.2645716723121666	-0.42712843804204975	1.480882745808153
0.08908629646837662	-0.32705346038702704	1.4843198450958102
0.1444740193631122	-0.48912684862278466	1.4693643937886285
0.08460196516112391	-0.03499026683576782	1.5151817779051955
-0.393417049829391	-0.4264304861144785	1.4539574986704966
0.4665876503792466	0.39079834583415435	1.5761166839678649
-0.22665831375256504	-0.3750576444413121	1.4662610239662481
0.5069008648356984	-0.21077104647346226	1.5138248193782162
0.5008125277993565	-0.4073217062843836	1.4926819140378664
0.21174617235484183	-0.04226237323244647	1.5196259068465918
0.410767294205461	-0.08145773328009322	1.523625981119885
0.5196144849954071	0.2749954964528689	1.5659828560831486
0.1587453124327714	-0.2366100388888104	1.496792202030321
0.29595978640149995	0.21857992119990932	1.5508086665065504
0.5276977750780963	0.16871545499637614	1.5550171091063205
0.40173285457205005	0.26953891743816905	1.5605657582978578
0.47798576691373423	-0.5411563760859414	1.477518804793917
0.26983357641462263	-0.5358246690997343	1.4695443902683751
0.1898505121335801	0.14613778660846025	1.5387541492590742
0.39788441245217043	-0.340365151514659	1.4955758305384126
-0.1958344017316557	-0.23825200040306552	1.4820680933070443
-0.3008498708973555	-0.29575147182337663	1.471646844240458
0.09533033395949496	-0.1434801867197496	1.5040896599781262
0.4016245229378104	-0.1935926068988823	1.5113310311796089
-0.011780899889859812	-0.5171509484741141	1.459973815649394
0.5369043843503609	0.5007348786316644	1.5906881217467679
0.1277799520450039	0.05999247389254203	1.527050054997873
-0.03232807006163545	-0.2566245761389601	1.4868243141213022
0.5116570034837528	-0.07637284126368112	1.5283063347211807
-0.03227392340259595	-0.3567043045462332	1.4761881902731784
-0.2940870363241939	-0.45743491584504364	1.4547376046157678
-0.03989473969561	-0.06550420738390902	1.506829676771763
0.3826681290462315	-0.5013789373877868	1.477835899304478
0.3206757747037961	-0.027059904028776765	1.5257116490353086
0.4138149499042126	0.16806503651532112	1.5502749840823715
0.21247352435295117	-0.3333460267837729	1.4887139366706617
-0.1639234805336292	-0.5247945958583398	1.452918396003298
-0.4918790049131712	-0.49913299390421123	1.4421890987136756
0.04478873120334704	-0.42679683463787005	1.471899578839804
-1.54496162309604	-0.16967713777302987	0.910890688289419
-1.5269506394633479	-0.3909966184819534	1.283981029805188
-1.5651301578148062	0.08222053805625379	0.49027293749147954
-1.5839324259917043	-0.35701578134368156	0.5680576882439176
-1.5575288476882256	0.26466674493182	0.4554290558967566
-1.555304542086068	-0.09008442759988133	0.7297554932190516
-1.5735432598995402	-0.09224700014789225	0.5096927837014428
-1.5702551149365847	-0.18202431637511943	0.6122240423202385
-1.54018766951679	-0.02053839965554823	0.8649184609811988
-1.5575619872240716	-0.21746822571648325	0.7911332957630783
-1.554889122651627	-0.39005983904741004	0.9439215715874403
-1.562527826160104	-0.3692842647239339	0.8366408380256566
-1.5507909380297131	-0.44912359817768543	1.034882381418162
-1.531130706025974	-0.194918289152389	1.096509636819807
-1.5478646941783338	0.06020272178915664	0.7153688946131208
-1.5725332636352065	-0.2991773621605905	0.666218249653519
-1.5449317917103755	-0.2781000019149993	0.986837039718972
-1.5737275807373425	-0.41858628673330855	0.7349518425304703
-1.5549314800068292	0.09172304588223233	0.6075456158894474
-1.5949596133216384	-0.4185001496217994	0.4769576796404831
-1.542584941727011	-0.3444725810948583	1.0616171656431401
-1.5470598910312336	0.22476491684477923	0.6104260185835948
-1.5468876077548015	0.36618963195532556	0.513928714416909
-1.5355795014075386	-0.3646355598101459	1.1607777439873914
-1.5871247844186136	-0.2735732382771912	0.4711061866601672
-1.5326038675639906	-0.04915621171659192	0.9769992267601046
-1.5642038926289203	-0.005194020455445776	0.5624641292166058
-1.5261579583311617	-0.28087019410667885	1.2168392573649536
-1.5490482657466988	0.48109477068360074	0.40757740506831425
-1.5401630038872476	0.1568126683985379	0.7415828001014368
-1.5360006467251586	0.08851444701349342	0.8397607458247259
-1.5741775550501063	-0.005262532209921288	0.44134837103517693
-1.5882964262868282	-0.4568344882034436	0.5846280983716861
-1.5579752170071421	0.34476691655528063	0.39416682507447626
-1.518827887039199	-0.4630643001986185	1.4328990075367356
-1.5567283597371835	0.3867419983474439	0.8633641978317826
-1.5397026809327794	0.2646724269943636	0.7124345788223161
-1.529401441624814	-0.2511955813927449	1.3174830111929958
-1.5671714835965513	0.5597734258545977	0.8012989274685941
-1.5373969990958654	-0.14082443749306772	1.3047921285426791
-1.5856004879024366	0.42414459897224277	1.3865117029271001
-1.5609358717254702	0.07256318459075865	1.4431630688834285
-1.5671337114904165	0.35194304673097104	1.1279642959601197
-1.565021638138975	0.20607810742101332	1.3151873302942556
-1.547133508301943	0.4881267822094659	0.5102012975853732
-1.5729468071639667	0.5407348481906853	0.9477261073938115
-1.582668193075352	0.4521296058653822	1.2833064333655941
-1.5287104199892207	-0.14966630432747355	1.1435971987584812
-1.5916015852328318	0.4256753928086146	1.5050845055534676
-1.5414410103583083	-0.044444814569420704	1.2344794868693898
-1.5325947540645182	0.038929500201306345	0.9247831974351431
-1.5737306103973212	0.31525859361890346	1.318754996422335
-1.5396560007877147	-0.19882946682148367	1.4417186585516513
-1.548915863578054	0.4098775642847588	0.6694122028147252
-1.5323963605686923	-0.02973176465009839	1.028956060434152
-1.5416375508674993	0.07456075418843201	1.0509542126310014
-1.5769929215872074	0.46538509704080017	1.1480073204002197
-1.5586833092851793	0.24682095234159174	1.123215701254696
-1.5688165204078595	0.4306467968313279	1.0378963774419614
-1.5439089966618353	0.23764309089059363	0.8398189997705803
-1.5927659163373875	0.529451505897191	1.3650635549002557
-1.5494371088416474	-0.023211709329771395	1.3622322479670248
-1.551437331009816	0.1359508573484035	1.1518044706241617
-1.5283123647004113	-0.3209483937533424	1.4054190251720953
-1.5492799873900402	0.1820210831099123	1.0357301224457394
-1.519670965469934	-0.4526873008436646	1.4387533762906333
-1.5880846813004628	0.5507491339371039	1.2371346060997859
-1.5352804916886411	0.12946208913560497	0.8362989457717607
-1.580364070423966	0.3025146335503587	1.4725656763517447
-1.558313617907664	0.519565170139331	0.6860670450144497
-1.5522498520007302	-0.05011347742273182	1.4613207174573435
-1.5583257051864672	0.457623144434757	0.783897442245139
-1.5717565905759217	0.19262775293802703	1.4721570281266396
-1.5407387474077492	0.005076986090175161	1.1423023484771373
-1.5574819946465295	0.2914039435380889	1.0287583426796505
-1.5417807369834593	0.38328491231194955	0.5674606862353021
-1.552755172784771	0.057710848729786234	1.3016360911448162
-1.598668548865112	0.5404919793640415	1.4666692205902645
-1.5562411451499596	0.5592791632949825	0.5817176688781666
-1.5493809777902185	0.24424335058962712	0.9397379083658005
-1.5481809893202203	0.5647801319283329	0.4105552255628049
-1.0136694398316863	-0.5204074284856646	0.6740574672676412
-1.389987335433894	-0.4799352782030948	0.7603704346290785
-1.40563391675251	-0.47647035119736353	0.4939237213305386
-1.276834159548274	-0.49078432702309754	0.5343615552060793
-1.1328316079892955	-0.5085438987173269	0.8456506395849815
-1.096730477078232	-0.5133001359798764	0.9697448825232124
-1.4161151577891196	-0.478771098978572	1.0157369317683773
-1.3999393441516197	-0.48221128510516437	1.2696893097109567
-1.5166855658238891	-0.46437027594074487	0.4956487415907363
-0.7084913368417292	-0.5531349993579789	0.5898708535200503
-1.4100697618325846	-0.4784672378277899	0.8697953331963901
-1.2642199433723986	-0.4960536772633184	1.124325180600212
-1.0553323023708092	-0.5150996394001458	0.5582997256061879
-1.499903323977609	-0.4702908430965473	1.115408213222677
-1.317068042861489	-0.48950052143072015	1.0047054913111564
-1.2611797583893787	-0.4946368961990376	0.8594147452232342
-1.2138343931388553	-0.498694394333312	0.6918242852448627
-1.349955258803886	-0.48366432145185867	0.6638647709973089
-0.8833467520237652	-0.5346409557209106	0.677139202942684
-1.3767454114854256	-0.4838867545943198	1.1402763778454117
-1.515154379593061	-0.46728044746394887	0.911296199620856
-0.9480295051403469	-0.5287173216663038	0.8484730799814186
-1.4649298203950778	-0.4758381370817786	1.3779977847912477
-1.314000438852691	-0.4912467706102792	1.2186055894859111
-1.4571784405971033	-0.4717172233270119	0.6255033593008179
-1.5641049440291688	-0.45989052639622485	0.600482562783097
-1.0403043648615171	-0.5183393671037251	0.8008472647248115
-1.161767543759061	-0.5070549130408926	1.0982065276474937
-0.7495860505280205	-0.549269509693038	0.6832622243462255
-1.5441420307575051	-0.46319350156620204	0.7710626932484603
-0.8745119500056446	-0.5347875886866759	0.553361599543795
-1.1849874610211935	-0.5011239763660724	0.5832587304291852
-1.533023315002468	-0.4676356790853814	1.260405980124946
-1.5429583235707631	-0.4648922179788392	1.0088920846546738
-1.1900134547788364	-0.5028743145873095	0.9315254593988803
-0.8241548443241438	-0.5417580222417875	0.7773711614987681
-0.8416491874769808	-0.53379209921783	0.8827837586455419
-1.019696602579374	-0.4903278562131848	1.3812616423565742
-0.9178013938383713	-0.49922556996253065	1.3054286816833047
-0.7589448610263655	-0.5112639979457096	1.2112367147486403
-0.5845535165988942	-0.5172742388921164	1.2022922674991048
-0.9569618837572291	-0.5109711295591289	1.1357677253230358
-1.0413076101901162	-0.5028802077365369	1.2080529538056972
-1.24955899972943	-0.48700045761095434	1.3328189086721405
-1.0962178616353608	-0.513507813431993	1.046739672611339
-1.1118875689690992	-0.49336236407472833	1.3045575673824648
-0.671749397022945	-0.5538039965375846	0.6884877299770792
-0.7389689078303391	-0.5041826001545611	1.3120698791009555
-0.6061098980080397	-0.5454810169018907	0.8238860527493529
-0.5322266144628046	-0.5093063371387084	1.3277038866834887
-0.9632103524510879	-0.5255491885931545	0.9421562114759965
-0.5463006650923954	-0.5261294678450533	1.101526691659938
-1.3980663506824922	-0.4827781387760983	1.328691718079507
-0.8600126461721833	-0.5088838306762639	1.20196025069201
-0.6135749413185275	-0.5354391696147945	0.952538331198109
-1.3047071943575719	-0.47871056436188625	1.4194065020279747
-0.6852847457667277	-0.521125989782011	1.1114541825818922
-0.6449845085768536	-0.49997352342141377	1.404890084560829
-0.8978206409714891	-0.49088857220012927	1.4227238717628559
-1.1518447689004245	-0.5044863144218289	1.1427264138096433
-0.7791413053547437	-0.5424918667558148	0.7937706257746442
-0.8216955674191156	-0.5260170481583009	0.992701323932568
-1.4673443562130637	-0.47420414421789464	1.413344529093876
-0.720029869225839	-0.536019718637582	0.9022911734490598
-1.270655014664033	-0.4944005646696771	1.2273590731957584
-1.1710165438880382	-0.48121678995749073	1.4400962902499699
-0.8600884448793084	-0.5178013343380339	1.0850271879198605
-0.6103033891367132	-0.5635383016880325	0.5854871842622746
-0.7873110274252219	-0.4940025610309673	1.4261619807006025
-1.5108962997278759	-0.08660519891560091	0.43960022010472966
-1.4434608998575253	0.045728523116943635	0.43038506138831667
-1.1691751462810933	0.003136957120428017	0.45447491671255963
-1.2792376374621142	-0.04098547063274213	0.45129719700802207
-0.6943415838350585	-0.5364468282929084	0.5455602023709192
-1.4898098620279323	-0.28735389781772774	0.46238515774748223
-1.4060383589034762	0.22828682023238228	0.41370399040314065
-1.1855408006650108	-0.23648873885169594	0.4787081004859015
-1.4137474258006657	-0.05989783236861726	0.44370238817494706
-1.5341103556123463	0.41577059540424016	0.38468992264509616
-0.7431854578075221	-0.3819021396819322	0.5256920799386746
-1.4875374724796375	0.14583174803369967	0.4166281516980003
-0.9185787094051316	-0.2895157762444072	0.5033814828006621
-1.302029845621567	0.2723878583207088	0.4164519221351374
-1.0346631390779653	-0.17224823601639788	0.4826660982455408
-1.0908817470529104	-0.44080159529879553	0.5071215215581855
-1.0695783930414002	-0.30493580057242103	0.4942396367138948
-1.570757165134381	-0.43265193605508095	0.47201027244555754
-1.2487215460116532	-0.3870324285055924	0.4901572216045242
-1.5008288125519325	0.29747700783013675	0.3996046629789047
-0.8040312763294487	-0.537433253464074	0.5378365224546926
-0.8554311050482494	-0.38303357315093217	0.5178013601134861
-1.2755092763011209	0.06286526208940109	0.44055474197745614
-0.9567566724796641	-0.5231043481102535	0.5254180274559572
-1.405037921957258	-0.3587038805822406	0.47599843785016355
-1.318560079931959	-0.16198289828100088	0.4613170118099711
-1.2266732341212965	0.16010817868830307	0.4337319465068712
-1.2800892322586506	-0.2846200753481258	0.4770625337411649
-1.5382590301430084	0.5242875587200131	0.3728906691451624
-1.2189781670816937	-0.12715753654967016	0.46473228338484623
-1.4369199865252733	-0.16978716987934803	0.45369727848906893
-0.9801073120093775	-0.3759781655062795	0.5081556727150909
-1.3904080090737958	0.34411936710641516	0.40254083294612225
-1.340355305217367	0.14082810103875412	0.4276625323520415
-1.1056083070266496	-0.09710110932974036	0.46963708550654526
-1.2083831645810073	-0.49234715471474333	0.5041997843209887
-1.3787545180681238	-0.46576088100015217	0.4892226235121184
-1.554660269126568	-0.20146299469446577	0.4486522333785832
-1.561176313291794	0.00516281091146865	0.42628415000026226
-0.48710771190286806	0.5032960193172967	0.4033639992021644
-0.7557100174343794	0.47620689878552214	0.40072321377415554
-1.3705844951091135	0.43089241157467756	0.3922485976487075
-0.6735644513737132	0.2327473184358623	0.4381599800533308
-0.9427398052952691	-0.02747794357754746	0.46942680610350374
-0.5703010059057363	-0.4052437869109675	0.533519177324734
-1.1072341796834073	0.22032460236183457	0.42934011512229103
-1.01419612532347	0.28529761102236395	0.422166410402035
-0.8838727647307176	-0.1265798004674472	0.4852888524587054
-1.0606688299838176	0.06825607933496707	0.45260742819509686
-0.7734727774652097	-0.2867204229711248	0.5112949816780068
-0.7319714445545299	0.3517336939857305	0.4194159805265525
-1.2571055598725853	0.5376213714859469	0.3795002585620081
-0.8849822658775068	0.2867376328803761	0.42512336363023634
-0.698387373465834	-0.2199226891586975	0.5034158341341555
-0.670215284281985	-0.45232124867419504	0.5379205466092541
-0.913274853282782	0.08871987070328137	0.45324191158480237
-1.097613295617685	0.5783271553153423	0.3774859792563187
-0.7262632570472174	-0.0710441781738678	0.48107067135284515
-0.6031134605239173	0.14672945021616118	0.45240215967891584
-0.8983753804719841	0.5657295375977374	0.38420141970746674
-0.9135021799166225	0.43411177155777564	0.4029813068218846
-0.5237097731010126	0.38502030519495073	0.4196763312373867
-0.5061601720687076	0.27168896062220865	0.43659627559221237
-0.7822234195057306	0.2658521541540317	0.43068041119368417
-1.1472746160998297	0.48941749652135713	0.38920548013716205
-1.0648700096933088	0.3851423717151342	0.40639704962576256
-1.1693756650569684	0.33827895210465986	0.41065476046474225
-0.5442599911232817	-0.22016900149578522	0.50722867528357
-1.3772477302475168	0.5782900810038869	0.3706387307148951
-0.7877485928596921	0.03737254390306898	0.4637891350865114
-0.9684456660902829	0.18342045137810278	0.43811083616733426
-0.6648941397442498	0.5628107388988637	0.39034773495107566
-1.2710549944051637	0.3376999626649575	0.4082472792027657
-0.638170967302075	-0.023545348728157247	0.4763182861127035
-1.2358381464857602	0.23106285224015555	0.4246261511479026
-0.656197247432463	0.4353283342753302	0.4091097375429944
-0.5646421787283318	0.5693159243344256	0.3918579672167747
-0.5752980624914071	-0.10889259483100615	0.49027718277755217
-1.4834694981461243	0.5175039236776469	0.37688016597403806
-0.6605542837117985	-0.3283107652982057	0.5201135870758502
-0.52317044248032	0.02453955532274262	0.4721400317986245
-1.148771875430283	0.11773773920100583	0.4432487447944506
-0.6733439905306923	0.0747588024043805	0.461152946062028
-1.0103095026690312	0.5055577247389353	0.3902134815853238
-0.5822138955655661	-0.5043712017881757	0.547650429316245
-0.4972291382856065	0.14326830790204373	0.45550053247920225
-0.8102547179892653	-0.19371019626802705	0.49686048780999237
-0.7596745373901351	0.15140282619221504	0.447885534768122
-0.7799012082956146	0.5777117374728085	0.38536128663538805
-0.9355421171568807	0.5172019064871862	1.3551981085173392
-1.5414249623626106	0.5461915473853073	1.3469249911385661
-1.0781353617927156	0.5287012221671068	1.2011872968092943
-1.2828655428760765	0.5380141155444291	1.2140908614242836
-1.530935437734737	0.5743974926325967	0.4136207139018369
-1.1640076931013335	0.5304246887829522	1.2775725398089866
-0.7011376848354136	0.4988839692264214	1.5893364408982575
-1.4592829980926636	0.5458577798913131	1.2311057235103227
-1.2477763700180813	0.5395364142770624	1.1104813436866159
-1.0635229204553194	0.5242808132854052	1.3223847919364984
-1.5436702883528768	0.5614902223813276	0.852944614447008
-1.4429590989170353	0.539053455284428	1.4271779962899664
-1.1190154498374916	0.5380010741085502	0.9618402120079006
-1.3157021856780176	0.5559305417017918	0.682168337980758
-1.518616805205669	0.5646670934397149	0.7110121019925085
-0.854507142969139	0.5152524426220594	1.2936209938256418
-0.9738452396057613	0.5132021009192548	1.544321073544231
-1.3724441880705007	0.5613587040336824	0.5931716852376921
-1.3207138841360029	0.5327611437426043	1.4432597365510216
-1.594201979684287	0.5455963673618485	1.4476654338523587
-1.5740738517203137	0.5553114409148947	1.1007359252368794
-1.2224155881443561	0.5257484900388291	1.5196924662263696
-1.0848869823679197	0.5177829862577026	1.5666101084082962
-1.3660781103676733	0.5396409805660652	1.2895155006566579
-1.4297676758506208	0.5494376424068302	1.069189130633751
-1.248932244753661	0.5438569704630575	0.9717791093798847
-0.7785085017427532	0.5056162443341788	1.4897478872425496
-1.4144875020009056	0.5573236886885621	0.7892072939326754
-1.4720680708582508	0.5555319992572331	0.9362603480198477
-1.277625676098538	0.5506150792201826	0.796284731020409
-1.3544926774125956	0.5309622491152798	1.5538421391612816
-1.1173422669617792	0.522818691592648	1.452921596350888
-1.4752034427368572	0.5656056550058502	0.6135462386879856
-0.8497295767598748	0.5062708668564864	1.5782932161625034
-1.370338983830257	0.5502848469484114	0.949996396512749
-0.9828580204485748	0.522409283548947	1.2588443106685567
-1.277340274004145	0.5338965373150844	1.3394550994112873
-1.0214877114738685	0.5287657477515956	1.1117323706776563
-1.5462024276762742	0.5711937159355956	0.5413362357217714
-0.5938898508671637	0.4936959430277756	1.592639469683962
-0.8468828059812782	0.5115130571073756	1.4034511433393182
-1.1322060757692822	0.5349086866528198	1.0827318857946955
-1.1917189810029694	0.5447591506276349	0.8542152513258994
-1.478241184701817	0.5369968266521312	1.548458970370345
-1.5783214031595794	0.5508830346393364	1.2512776229449887
-1.0065162020218341	0.5178488032560304	1.4436137578641672
-1.3562231877724262	0.5436302090786049	1.1446066770838879
-0.9101770808637576	0.5211274383455314	1.188442123336711
-0.6458671658104856	0.5162175110865346	1.3281424027814586
-0.9487612521169678	0.5506645872633315	0.8511853549511987
-0.8863967274560763	0.51974698450257	1.208309128033991
-0.7882636631741637	0.5406274495996019	1.0146310945313153
-0.6808923895545962	0.5439299152849713	1.0151121441637487
-0.7805872346893481	0.5154060690829357	1.291325952230539
-0.8320972434287676	0.5962128456308213	0.39570603824610295
-1.456547323382651	0.5788891171537014	0.3724473815365199
-0.6148712469614144	0.5804978644819011	0.6400720925879658
-0.5106949346083194	0.5544479287054934	0.9584595123223536
-0.7299016581695944	0.56756005607859	0.7417091478186986
-0.8291126027336245	0.5591969931189456	0.7989885961754085
-0.8103478216695917	0.5303006198473064	1.1193776619895728
-0.7456035467917321	0.5831277461393367	0.5672077024566092
-0.8860546378312174	0.5780375811761934	0.5749491619371901
-1.2261096584430566	0.5610280220814995	0.64461172845819
-1.0115652027297541	0.5819483294500388	0.48993369379856283
-1.0699673606085047	0.5534937869255945	0.7793817519021949
-0.908351930646676	0.53196529812439	1.0680889545826815
-0.6461452241945812	0.5589423099310307	0.8637344206185935
-0.6122846443044837	0.5986430144613888	0.4437549892308125
-0.5086655740367115	0.5938944332358661	0.5304601612526444
-1.3088576685243511	0.582622171741079	0.3819063620858615
-0.9620689721807523	0.5667206273141463	0.6721877391124788
-1.4346268090605974	0.570011995152566	0.4763452449368183
-0.9859852470293488	0.5375558676506554	0.9810358022838829
-1.134437153389176	0.5683738063043124	0.5958340478637153
-0.6002238216216094	0.5083978110256676	1.4285845116954896
-1.1375699668456356	0.5794628321605534	0.47426232582193206
-1.1934400220053092	0.5523384287871655	0.7501127530857412
-0.5832424649305987	0.5449384091910038	1.0372300493512316
-1.3245560831518162	0.5706188832331431	0.5070350206476337
-0.8702716071496521	0.5453593703962248	0.9354274948042006
-0.5325978712512748	0.5674076752609265	0.8101994857105398
-1.0840960676779334	0.541461375252219	0.9053586277882592
-0.5708553638799088	0.5328546045206995	1.1727473585294492
-0.6691111996605942	0.5275300926593919	1.1973287394614684
-0.8606240159634734	0.5678108435412894	0.6947030452877542
-0.48228662422303753	0.6069237627025456	0.3977988589356767
-0.48479224151384337	0.5802250876667334	0.687099237433969
-1.3292608369280638	0.5587363567456344	0.6345752652055848
-1.0573547863298003	0.5889043577322444	0.3988280423353157
-0.7264815015128322	0.5070192146804603	1.4007981725730352
-0.7137755281385838	0.6001713735327536	0.3927666334244606
-0.6026905871175579	0.49633013225854405	1.5588949996495243
-1.2107782703921666	0.583706773341839	0.4033426423523028
-0.7509059959808344	0.5503737442798409	0.9213672407439739
-0.9347322200857716	0.5935642695638573	0.38972317670409834
-1.0641441237969558	0.5631281660640574	0.676652229037757
-0.7679071036567888	0.4270234731290549	1.578455336620869
-1.3934801896592495	0.366331388188689	1.537095098121011
-1.387779554515482	0.014914344504312383	1.5005889175252738
-1.2434265655666648	0.39966257889323603	1.5489832612894987
-1.196324342627259	0.09783747601405267	1.51999022339266
-0.9841796270648211	0.28343717580908956	1.5513086065604988
-1.3517827104088538	0.5112332334899647	1.5546123570333432
-1.3243344971423168	-0.06394500005856528	1.49587491463064
-1.3359720637967496	0.15364099484482394	1.5180247220948582
-1.002235310981415	0.1676077961109589	1.5381606011389501
-1.1909330805397278	0.3078685277050737	1.5423010942154995
-1.4121249678613748	-0.2803164657795434	1.4682894624902552
-1.4801280647689576	0.11979084905343343	1.5064121445125744
-1.4375181078590522	0.27201099837511455	1.524747343664333
-1.0389244098093529	0.49820450807063754	1.570751232549588
-1.4891408448115853	0.3958956654244575	1.5348410162717505
-1.181448548684872	-0.05959444319853521	1.5043251606321957
-1.5906101268879713	0.43943608326560196	1.5337265117149546
-0.8851459762834559	0.2590779929862994	1.554296848531932
-1.5037580444090175	0.49773732932546527	1.5446952230609503
-1.5681149945768802	0.27919593972651985	1.5181934696720256
-0.977613180804748	0.4188668229377797	1.5658677182485832
-1.5649555380588676	0.17532798023682356	1.5074858754369969
-1.4950874794692726	-0.1690082710664249	1.4753118075344709
-1.0964653709278458	0.06450833931733199	1.5220846764841005
-1.5186455654595457	-0.45897824400489673	1.4436076879643522
-0.6711663294962874	0.4727708188332991	1.5886617839896724
-1.4719098126534278	-0.07089330309148759	1.486890083644065
-1.2393234840731064	0.2019730443683779	1.5284968633633964
-1.5366251054838653	0.032794716656409935	1.4941348242915249
-1.099220850007605	0.22908283771672466	1.5391763343427618
-1.342046118213057	-0.1830690972529408	1.4824009045318136
-1.3344669122364063	0.25925531406749835	1.5291762989603512
-0.8852535956138563	0.4787070932425549	1.577305844710779
-1.0867193343622814	0.3753107860344998	1.5551990663165765
-1.1496681698026567	0.5116422525705703	1.5659633580498258
-1.2475165977568556	-0.1460314309450531	1.4915709434685245
-1.5195082373450286	-0.33601412244244827	1.4564448795063827
-0.7714394533043832	0.31482891646081657	1.5665007941175528
-1.1500676610242888	-0.22561668893788114	1.481711032727143
-1.3297207621773925	-0.41022650747511313	1.452402047403684
-0.9555622235040018	-0.19681136656092688	1.4868299030878471
-1.0736017749804168	-0.34321771693646613	1.4636662673141745
-0.7537893450028345	-0.42912350863237125	1.4513500585429584
-0.8529336839042791	-0.007870567850791913	1.516560187334418
-0.6386482740903396	-0.09983168998098892	1.50295603094534
-1.0226526620145324	0.01640183271410427	1.5197799664117502
-0.6196235092899482	0.39939938575355205	1.5806847135021498
-0.5714807420845196	-0.37732075193630343	1.460006703013917
-0.5910708293306881	0.2466181654302404	1.557009843808774
-1.2470886093416713	-0.29336403201007005	1.4708534243920597
-0.8022573780780899	0.23347126427524184	1.5542723043640965
-0.6202925078480275	0.08159384924959238	1.5312409132356568
-1.080303124802782	-0.13959224070792006	1.4953227006623357
-1.2288055871822834	-0.3906678685559747	1.4557756129885766
-0.8031042205993631	-0.09670947452407709	1.5029026875543905
-0.8469426118022297	-0.48269135186479956	1.4427110596945012
-0.9673660622109788	-0.33598728727440424	1.4651393503705106
-0.66328047136927	-0.4752715798216356	1.4444673962243464
-0.8438722795410324	-0.21493776352955074	1.4843760552475573
-0.5541692236862258	-0.27954602298589293	1.4752744478579385
-1.1121520827845495	-0.4436708410767807	1.4479122205619297
-0.553260359055042	-0.046643383120083516	1.5115105304535885
-1.4392842299998911	-0.4501976689458504	1.4458245187909273
-0.6882338614108994	-0.2947306165661373	1.4724726996980242
-0.849257192946727	-0.3701707281418381	1.4602085185753684
-0.7901282925053936	0.09469902666786036	1.5327230034420323
-0.9646472217591129	-0.4742706911577352	1.4436352522656213
-0.9400330643266847	0.08364252082123277	1.5305115470976718
-0.9446197886025917	-0.0625203942666945	1.5077576715495231
-0.7059180476306411	0.02700667103264295	1.522468009756073
