# .PCD v.7 - Point Cloud Data file format
VERSION .7
FIELDS x y z
SIZE 4 4 4
TYPE F F F
COUNT 1 1 1
WIDTH 814
HEIGHT 1
DATA ascii
-0.5078721626317995	-0.22990549834761423	-0.48549306739981335
-0.0428037977465967	-0.38749110523936475	-0.48458149570042824
-0.2998966720315363	-0.021954382700252996	-0.4854662913750986
-0.4401651992214177	0.07993266485582713	-0.4858155889193929
0.27308191162303236	0.4688838503901182	-0.4832423950786821
-0.4668641447983942	0.5426146669013285	-0.4862333200509805
0.02019702318706575	0.04275133867007178	-0.4848207279359979
-0.18496440133613623	0.15658329357063705	-0.48553492972835255
0.39537858139370685	-0.2815778141663198	-0.48365779862832975
0.41177238958133405	0.310105135538712	-0.4828604216303461
0.3075413480652633	0.14239574667085972	-0.4835011896289963
0.1777595018828085	-0.08358217010520838	-0.4843201745759447
-0.25248798588078003	0.23933301437562765	-0.4857141887036608
-0.027934938784120452	0.39814069391127493	-0.48458326423360176
-0.23013288023806752	0.4744904106207712	-0.4853313108385742
-0.2270076199203408	0.363113835790653	-0.4854555378659739
0.3667042147396167	-0.02030102835364557	-0.48345526639326797
0.012266868569376076	0.2813759664016505	-0.48455971177479046
-0.03812244713636296	0.13931963609389447	-0.4849446250829997
0.11242421785507795	0.45769850028906695	-0.4839252966636157
0.22366259633002428	0.22442869068490265	-0.48374944900227035
0.4039374264529122	0.47264531813119737	-0.482692763757282
0.4650124409122486	-0.511381327271376	-0.48365095706915395
0.3086437935279511	-0.20564643561648321	-0.4839254716513628
-0.08908800591781396	0.257209660608249	-0.4850116205294954
0.29912249063852064	0.3518275337968751	-0.4832781816108968
0.1727102192061643	0.06716434167005698	-0.48415544740760247
0.4325415441631544	-0.187709949914191	-0.48338735140823036
0.4535688414338614	-0.36716039731772954	-0.4835209025236463
0.12378092230412802	0.2626318601283004	-0.4841183675354629
0.0918880243572832	0.15414493867921036	-0.4843848798920963
-0.06490918416940727	0.49213425250821236	-0.4846214339952838
0.2638336070098505	0.0013747664386532658	-0.4838569992384038
0.41032023855050015	0.20498552196359118	-0.48299600286796596
-0.3315291092793568	0.4572104542882667	-0.4857749061534984
0.4599019457802457	-0.07025484213198718	-0.4831286653004965
0.34215897781085053	-0.37503328953376003	-0.48399461151288986
-0.13353418992017724	0.4181206352102771	-0.48499845123362884
0.18396530788318807	-0.21694861954164346	-0.4844586684632653
-0.3411323220597441	0.31809300860979883	-0.4859863291978695
0.04360248159156403	0.533718057021135	-0.4841182554900005
-0.45375980233978264	0.4404345335136274	-0.4863046532163685
0.06524329183808388	-0.0854145273838132	-0.4847910479300851
0.4389444485234492	0.08801458877717788	-0.48302092369857386
0.2976395476232594	-0.09342168373788681	-0.48383301441555654
0.19280866249346942	0.3775536294329221	-0.4836892640562659
0.4799979113144207	-0.22952658588093994	0.09349238209882607
0.48879092127111773	-0.5186821719014262	0.32959822768480945
0.48770643801144986	-0.41588231122078334	0.36133233309576557
0.475168854064005	0.054958350645447185	0.07774593609499732
0.4821884267869355	-0.2331280159089956	0.21434004553293493
0.48452960875606516	-0.5314350164934073	0.07659779349430845
0.4797072681036582	-0.12449296798611167	0.17222926197123647
0.48475509869304756	-0.40166087359434127	0.20700344182836955
0.47844583293616205	-0.5288943006464505	-0.26579893505352303
0.4812979324628513	-0.5059935331808728	-0.0834446114714294
0.4797757108733739	0.030329498614092808	0.3164410574759035
0.4755112555872105	-0.5234420839076832	-0.4271266943355279
0.47662155864690064	-0.3723479764051975	-0.22726375622631845
0.485900882368657	-0.09750117644428385	0.5476181127358467
0.4824310396627023	-0.02062389001591093	0.42070382523470606
0.4802803366606388	-0.40327050093689776	-0.04799037901825806
0.47793729562812703	0.25628886075091545	0.4170922697358192
0.4825267495067245	-0.38448131258678564	0.09631962963873338
0.47730681417783816	-0.29353544541083326	-0.1170008572796247
0.49242778568455864	-0.5380269546880382	0.5181242820110642
0.49049286636639955	-0.39779293316148195	0.5356046731627567
0.48689841681873225	-0.28412216408290564	0.43498059033654507
0.481154720435908	0.1352373892738795	0.4896645649407147
0.4751314559097923	-0.16808303506501845	-0.12654178005838368
0.4751632085041575	0.19196605327320848	0.20161234580855933
0.47759686264136025	0.39662318142979464	0.5250053195276445
0.47542250468842695	-0.40806877324996627	-0.32757874418718896
0.48434308003281157	-0.14573162160460756	0.41563788452244443
0.48038234172395444	0.2316340954296533	0.5332782158800423
0.4763588142937042	-0.04805783213312923	0.05179195513951242
0.49173327164510694	-0.594584969615274	0.42750870598318036
0.48708110290506185	-0.20460505382198588	0.5174071311167318
0.47533525752541084	0.35989174462506895	0.36357135323271533
0.4774555624092759	0.1671672779583201	0.30901639629147504
0.4799901794567014	-0.3202972002429089	0.010778163561697095
0.4872261282349776	-0.5837263144270747	0.18198167254132686
0.4752008816641558	0.4887171843828688	0.47272750111377404
0.4798834644076502	0.10670634570960424	0.39177561498207586
0.4831769318660746	-0.19248477573255848	0.3071873706812009
0.47685645096124946	-0.14806529498983084	-0.010661117019453064
0.48323037958601855	0.036011116473953005	0.5173285007829926
0.4812809656192187	-0.08898785023856715	0.29357562375830687
0.47482335130359254	-0.2409627631933895	-0.21005814444135654
0.4775108240906021	0.0510981690683229	0.20694030172662892
0.48539201468558696	-0.3020860543024327	0.3333467954138217
0.47085181605899806	0.14034652595745628	-0.30633973373289286
0.4738582909676065	0.37385166441857737	0.22830654056733227
0.4727296858577735	0.2651770263458178	0.009276750842953313
0.4730126107151131	0.14017293942010478	-0.06857335135343508
0.47241967327442236	0.4687781297581568	0.15267992806052957
0.47073707053999986	0.2547541093658892	-0.2192119949406501
0.47057523870997936	0.35800251071286554	-0.14699943641233887
0.47219201963116486	-0.22202285179490536	-0.47475602977035614
0.47357986090714327	0.0025894854183546156	-0.12608640862097056
0.4746898445651946	-0.19542725000647201	-0.17653799380911572
0.47479122536273416	0.4579512648247962	0.40436256909986285
0.4741911069584906	-0.4052560932598785	-0.4144204137627799
0.46839628531231337	0.4274177570331252	-0.3263873573534973
0.4683341429996994	0.2856140952100336	-0.45688065012949686
0.474864917698073	0.5595549063750634	0.5010736822156407
0.4693852684702607	0.1795082040134552	-0.43366780694617113
0.47173286312312923	-0.024322721912586904	-0.3529201575399609
0.47366824067761054	0.3019418365689338	0.1446762819974089
0.47038254791024703	0.484200502213994	-0.058172899334522056
0.46909021362975833	0.4777690097434013	-0.20607561065081717
0.47353287432010077	0.5279439319166197	0.3268425448681005
0.47460110531046246	0.08711960596730593	0.060068542609677665
0.4743301448638601	-0.3046772170429406	-0.3114079047786241
0.4733635395300801	-0.15161167176982324	-0.2843662940326259
0.4671422869814757	0.5254380010521116	-0.378988423827549
0.4713953437305005	-0.08215083416159094	-0.44050865790236354
0.4673181720433189	0.4088789736646916	-0.4612603277388878
0.4700069831012945	0.08048653344093709	-0.45155857875698596
0.4719859246365548	0.3837349529542586	0.03076475804075604
0.4748014705185648	-0.02713192586109559	-0.01749582850900676
0.46954279336119176	0.3319139164414634	-0.2834274078792335
0.4747353120553022	0.3807694796054544	0.3309045966011204
0.4720517190780482	0.14059219343696472	-0.17400827591438878
0.47300496203114933	-0.054212781191526366	-0.23891743170497154
0.47489680913396776	0.19207841250503835	0.18415024709019312
0.47107842585449067	0.5237406322645107	0.05292635080886569
0.4722537653575759	0.5611830108483581	0.21498826890615244
0.474347608173462	-0.4903212021239244	-0.47136430524335515
0.4729689185275306	-0.20154069325913213	-0.3713541503324277
-0.5244048099611556	0.9122992753412346	-0.11764347458492669
-0.44669135825549744	0.7772471436332946	0.37924842187071695
-0.4989276584595493	0.6898092408795914	0.03150568581639551
-0.4757472613345244	0.8793989321181578	0.19745329056766153
-0.492217964680161	0.9030566843931452	0.09175821476262215
-0.44173474150866304	1.3484171930538127	0.45567033034956844
-0.44752573325097167	1.1550704173623805	0.4029503793153177
-0.459176292022171	1.0869075369696528	0.32163717994058666
-0.4697579325541506	1.1780866568891473	0.2595949409844008
-0.47344581271584096	0.7776185232380818	0.20462480845849812
-0.4365668231625334	0.9138286328004513	0.45587822035497977
-0.4617179284679	0.5706805087579175	0.26521899500382823
-0.4779918574976722	0.5546294665768914	0.15774495750943573
-0.5097925418802706	0.8356418720523594	-0.028169083956143006
-0.48553718720601513	1.212676961870553	0.15925705801335924
-0.4841547476436028	1.075575086022919	0.15770429273915668
-0.4791749824963577	0.6792715662075054	0.15963758145771492
-0.5285225084823558	0.5615318874736628	-0.1715850796263487
-0.5077682870984973	0.576477946259261	-0.034949078399306416
-0.5203210948956246	0.7548885377725546	-0.10312920628379063
-0.4533862275472488	0.9024368891176341	0.34520279709939344
-0.5470012772071108	0.7052920612405408	-0.2811229493581922
-0.44496432494462884	1.4677835083013084	0.4437967137513415
-0.45137828056581203	1.273513764614097	0.3869388672961904
-0.43420729125190033	0.6067283603009238	0.4475886579802236
-0.4387294648448015	1.0136456206436129	0.4494613537237021
-0.4707605949165393	1.0068555507193466	0.2398392628931181
-0.47068190109176755	1.2956989137906263	0.2626369842678347
-0.4984657349165889	1.0074274689048142	0.059025074565831025
-0.5616274471498651	0.63985671588347	-0.381650421041898
-0.46056863965426426	0.6763625649724576	0.2808747947698289
-0.5755806800279206	0.5594819949655441	-0.4789375396701648
-0.5440413247733904	0.5781682940208301	-0.27160795631384915
-0.4930476611690236	0.7844529570213296	0.07719180844984676
-0.5091952088118477	0.9390533496877358	-0.0162916076409865
-0.5360121446244093	0.78950200354864	-0.20288950336472247
-0.43285215006753225	0.7262753030449983	0.4656579195179852
-0.4597564691782414	1.4035417442907954	0.34227785069200445
-0.5287483921844004	0.6617828991004242	-0.16532536451452576
-0.5198641089329245	1.2632882641227956	-0.06719289254830772
-0.5415063834927609	1.237654641525566	-0.2132804100795744
-0.4827767150421147	1.5221533546908566	0.1951204832016598
-0.5239765369883129	1.0814950481916745	-0.10480488935521315
-0.5757039388062297	0.8036208838783967	-0.46603273386141986
-0.5735922706652472	1.4317099188304565	-0.4169401600438582
-0.5626527821828309	0.9094621456325211	-0.37290273937155677
-0.4999436925850893	1.5213512048082203	0.08032932756920783
-0.5376057018402072	0.9793081477377816	-0.20159486276156982
-0.4947484621546689	1.1639702591755587	0.09515265332659083
-0.5771848433057295	1.3120061832400742	-0.4476196458168097
-0.5550978277960198	1.4425240220572342	-0.2927184806251159
-0.5689884953752447	0.6383221870025159	-0.4303511502637747
-0.4892676529860125	1.3637250417098759	0.1429113697968883
-0.5065963190027838	1.3691089953397286	0.027383965999123242
-0.4731727846535483	1.3504902512753774	0.24975468869443962
-0.5401888680976002	1.5494165475666775	-0.1871121257255761
-0.4643725598656019	1.4627041393954547	0.3148257464918032
-0.5632841505682706	1.2514342185923075	-0.35807868198869097
-0.5766837501786835	1.055071263917134	-0.4585788150609953
-0.5152491030960604	1.5270423224606768	-0.021657247029634404
-0.5355832442503733	1.3338315920835493	-0.16833328246975615
-0.5253384275280529	1.4247485002741362	-0.09479238525113201
-0.5402769112146029	1.132762692521591	-0.2109038124626711
-0.5622613491976466	1.5393509822521751	-0.3352082286457816
-0.5556374078326373	1.1263621312297196	-0.3139319684076057
-0.5580150238006915	0.7394289961600122	-0.35137235261735467
-0.5348951589264964	0.8693443654130956	-0.18960102864175107
-0.48492870466426663	1.2442120390180818	0.16525790379109612
-0.5585757257494258	1.3448878594877292	-0.3214025352896629
-0.5743068996012699	1.6172208322474484	-0.41138585257350707
-0.5118361109907321	1.1641284373308332	-0.01905477803687862
-0.5789737168150051	1.156002523643527	-0.46826447395438786
-0.5574190811780497	1.0019836463518361	-0.33276748331829364
-0.5212076517757297	0.9633578865302258	-0.09287625754597233
-0.4498201717661591	1.5329346241264092	0.41600704057642957
-0.5503645835611973	0.8341793665703335	-0.29495914836748416
-0.5779568660085452	0.9183346350770256	-0.4747032776025652
-0.501827052400588	1.2682465101703058	0.053645443430783445
0.21223485275128331	0.9130333677640423	-0.47396011915522457
0.29600491187491296	1.1185094457696971	-0.4677543013554781
0.3115796228519497	1.5468674298624272	-0.45600315522830054
0.35192820466801883	1.0085371369415186	-0.47032431242835043
0.4185252570755118	0.7842013598086309	-0.47592104969978083
0.12258229478096347	1.2009833229084097	-0.4668074362113979
-0.31636071109095504	1.3755544999775209	-0.46533912415265916
-0.08401989927296527	1.5591285212340493	-0.4586202580506735
0.5005232950241949	1.0197813665187492	-0.468910767845271
-0.2268969447575447	1.4962960844302728	-0.46139239264469495
-0.31737362961569004	1.5411254027274743	-0.4608494642083606
-0.06870598379611936	1.09638720661313	-0.47107497108900576
-0.44197965548837465	1.5882967990551782	-0.4604974361197757
-0.04702860047585045	1.432009708440508	-0.4617971831787839
0.1710529568521697	1.0621040200048002	-0.47021819212397026
0.5484459780337473	1.5042115684886366	-0.45539536479789827
0.35079008589630545	1.2803498217443448	-0.4629498617498992
0.22605907127429264	1.2635805011390087	-0.46433551454580746
0.13812843334224964	1.479355233766442	-0.459130403868661
0.3779668928202747	0.6677419373274212	-0.4793867634450506
0.4769990789130203	0.9088620860721394	-0.4720989708741186
0.29528573589737256	0.7305512873588181	-0.4782973296737198
0.09142498758034222	0.9353797029972012	-0.47425407647667056
0.39771930610337775	1.1514166917340176	-0.4661019562289978
0.48776795157424474	1.2473888373746134	-0.4628236470806743
-0.05879746244849969	1.2481791081981037	-0.4668781290917537
-0.12823791817311614	1.3546278921115669	-0.46450462616038674
0.20629130873694848	1.400597972774503	-0.4607612809387776
0.021437581133111863	1.147392519956142	-0.46901733688926694
0.3736914950826172	1.4454079358774983	-0.4582957918143261
0.03591861078104289	1.2986698704433317	-0.4648003721144476
0.03067057929576347	1.0477630422056126	-0.47165460480946775
0.036584594476710613	1.576104678055329	-0.457259760242099
0.4449536758501148	1.5664440767212306	-0.45447679578870553
0.5478986713660613	1.340431520294223	-0.45984801699735933
-0.16179005026136842	1.2530279910286624	-0.4675144795155182
-0.543540624067917	1.6048399976745427	-0.4608054710444808
0.29351059636444715	0.8311162008406163	-0.4755790374764013
-0.3947367017464596	1.4393055252141707	-0.4641920074606673
0.47735215092717104	1.4152463341470296	-0.4583419998764493
-0.22340305632389135	1.600623685399199	-0.45853260570116156
0.37344715423449826	0.897074438987879	-0.47319137158158087
0.07536103927077141	1.3969604029861957	-0.46183648117193565
0.47905704749551214	0.6732735799327727	-0.4784826458148281
0.1355579689359786	1.3089448397468333	-0.4637782360532333
-0.437000021493514	0.9260255354947017	-0.4769873592906933
-0.09217909947922809	0.8244789463571724	-0.4778605347380956
0.17227147380788327	0.8130019984441155	-0.4769040270475734
-0.24603489922892896	1.169355145111922	-0.4701345499594521
-0.012714930709155903	0.892513557421767	-0.47582249370699986
-0.4165004795523946	1.1507118633822506	-0.4713888689136053
-0.16534929962494332	0.6562806111412521	-0.4823221256082798
-0.4480963215446607	1.2710593114926192	-0.46858942859937486
-0.11850452550371436	1.1274564527634527	-0.4705638292666528
-0.5728853115182337	0.6867705097106105	-0.4834826193112878
-0.43294010148800194	0.7177828916572618	-0.4820682111675652
-0.31992123690004737	0.9735894942305142	-0.47527461434172924
-0.4047464384449011	0.8214806898251759	-0.47939671659203587
-0.3154462262194037	0.8677024031495024	-0.47784684151072676
0.01311686769524228	0.6479672669388066	-0.4816905318211379
-0.5700983964411469	0.8063841978276345	-0.48054024408640184
-0.34136784697271694	1.2858645678804759	-0.4677273800167572
-0.5611338863193032	1.0235398992716176	-0.4751801600777358
-0.26190557984956864	1.060484643749327	-0.47287505459227286
-0.48322786637250387	0.5807510434584965	-0.4856594510191752
0.3956556275766522	0.559418591594358	-0.48206887684774885
0.1255592076582774	0.672047251057488	-0.4805746058535649
-0.20955691358449624	0.8238509109048422	-0.4784252207671478
-0.31235065219818536	0.5802017736532459	-0.48487323028713386
-0.5621919160735864	1.4238439258324729	-0.46538168666062335
0.30628548885569384	0.6069350266177743	-0.4813234367935592
-0.42818690953516425	1.4196667254155388	-0.464856868562599
0.18884922969109855	0.5568355302069312	-0.4830999498401891
-0.5764144311927086	1.5796419477274488	-0.46163275982768565
-0.5618783142849803	1.235074823811198	-0.47000316455603786
-0.17136005094973375	0.9349315521079968	-0.4755261077098062
-0.28556289506051635	0.678366696790532	-0.48234381490114236
-0.1817400498588547	0.5492076803955505	-0.4850210416554075
-0.5578424624295637	1.1350516727041622	-0.47243383931842486
-0.031893068587062465	1.0035406105331397	-0.4731931969274364
0.08791141391147542	0.8750190152038942	-0.47578002230066
-0.08609143001807756	0.5814300652314212	-0.48378430008062223
-0.4555206309222858	1.0273460809369548	-0.47459269727313785
0.22987943258977941	0.7045743419004867	-0.47928982060945485
-0.00697935991639449	0.7478565211718785	-0.4793382956392874
-0.5444835206263318	0.9194875966390974	-0.47765047506585745
0.48357192283724804	1.557107282635312	0.10860577195229369
0.4373113084676049	1.5910385875844324	0.3811206183928344
0.573855375433315	1.5585933484808856	-0.450449491291844
0.5015880855019594	0.9680416921704644	0.23387925490001824
0.47445765476352425	1.2893123206947144	0.2725957460567049
0.44798383398727853	1.1221627783935888	0.5035210276484836
0.4936608729753711	1.111025539063297	0.22545621652432404
0.5209450310553247	1.1192979471512798	0.053362851631596334
0.4743383914019579	1.4239483594013	0.2192303350718582
0.46511005070453926	1.5886094095841667	0.2101446407459262
0.5363070776916985	1.4716680318899558	-0.18325971864724463
0.5214494490018003	1.267643679039069	-0.009369610820634295
0.5061038525001383	1.3493512045719631	0.05271829352095521
0.47663022769366103	0.6998673010096419	0.49602394492777907
0.5014564874543018	1.22369875401703	0.13195817113115038
0.4929153021811251	0.7857868892701112	0.36076429596834275
0.5047738049940728	1.5417695305995067	-0.016377336406457062
0.5315698092071168	1.3632492398082197	-0.1103890325366086
0.48172050657505844	0.9231019877366159	0.3748312184601354
0.4510171869788716	1.3371066054303868	0.3983832989548553
0.4685160198805098	1.0722281473951603	0.39658306028364304
0.4590393467130875	0.9118100825277095	0.5196656151929318
0.5583717234374156	1.53076337628087	-0.3434902829664925
0.4712790134431149	1.1910683863342721	0.33173663572033313
0.45487897642256864	1.533579372380587	0.29554373216289254
0.44203088369227156	1.4627295469734132	0.4034878141726846
0.44449664202857253	1.2239969070578547	0.4841696631142196
0.5385272243947515	1.2205655892312752	-0.09608784057500223
0.47575428983938683	0.8340278931774786	0.44753008301979647
0.5159206210425311	0.9994085188255973	0.13261912692219374
0.5221483672614937	1.5563807246948893	-0.12972104520454236
0.5181148715885776	1.4526361529728617	-0.0630819449690761
0.5511149296052312	1.3575560400136448	-0.22899969847230056
0.4582429140946079	1.0078699672451834	0.4859906311031929
0.5389249588538528	1.565318693286236	-0.2370861712117516
0.4761661100049873	0.5998788513337573	0.539074882897748
0.4992505113538373	0.862103984270362	0.290909354370172
0.4888355673178236	1.3340140611753037	0.16569633463838784
0.5019362157809667	0.8730041268823091	-0.4582639896725334
0.5328488216729398	1.1665691202548054	-0.4619680211300984
0.5072339486093714	0.9183755500038874	-0.3357561468377489
0.5497504951728319	1.319512473230202	-0.2753739241877187
0.482021968603391	0.6693917897847425	-0.09449746150805274
0.4753215195875993	0.5910834512285289	0.27223097105909577
0.5196600639257348	1.0368404273559568	-0.34868634641963575
0.5193927224483543	1.0171636863377143	0.07863263827372179
0.48979576170580597	0.740081188134338	-0.01725899857634884
0.484201777594265	0.7034743847432238	-0.4283973241112952
0.5079842041072703	0.9065858280442941	0.13573817304857022
0.5075785507053867	0.9074036069066793	0.019350266176543836
0.5402876822523272	1.233617031121134	-0.37320153984711774
0.47130918536909633	0.5755904785443191	-0.2910221260843469
0.49781279781172566	0.806251338769278	0.2302186222374911
0.4734958646553221	0.580826446724516	0.09591598256032104
0.5186858893861928	1.0211769165919453	-0.18870001344690238
0.5150136912629685	0.9814876589837052	-0.068190628577492
0.4858094036047352	0.6907075037957324	0.27035851301094854
0.4692851674235794	0.5638274398618667	-0.47673131941041036
0.47029603874140513	0.5585365099722487	-0.10559134833257064
0.4924162006651819	0.7593626456236263	0.12214330652819234
0.565135022650816	1.4699007886522435	-0.384113043577712
0.534864481910028	1.1771613708537876	-0.24904628563352443
0.486575260209634	0.6912559417603608	0.4379264455890261
0.496607320817378	0.8142686991856385	-0.25495135520273776
0.4758971491367831	0.6078730792563501	-0.010148625275239647
0.5348215503677425	1.168983017959757	-0.05530117182924365
0.49967101084088006	0.8375850866308383	-0.11125265158149929
0.4845078105436516	0.6975959863436166	-0.20941205819204178
0.5537514492576069	1.3612570653307279	-0.36932661867554123
0.5209472744097831	1.0534478465371475	-0.45812578429014145
0.4813928476291311	0.6729927614192515	-0.33316082131488334
0.5448261330936977	1.2682329223987254	-0.1622196353296912
0.4751529426813864	0.5853373105502204	0.3756012287935404
0.5067313927780096	0.90763277706896	-0.18684535424310433
0.4829050950549144	0.6671988305480855	0.16917192738185743
0.4749921775089055	0.578613224742048	0.5052025506427131
0.5466602189825861	1.2972284729240058	-0.45110406826836147
0.5289773670154332	1.1177408223360121	-0.16075606888419797
0.4928783949270988	0.7544583929752514	0.35379683681632484
0.4962307127931306	0.8153487529307185	-0.3710047162810119
-0.3817131963315853	1.589432239338078	-0.1973794387247793
-0.3367528835696936	1.600112990847292	-0.34709803391023075
0.19041169323783888	1.5790938937387087	-0.43548968905948543
0.1321012726777664	1.572409719128363	-0.3230207416844725
-0.4259114549839883	1.561414270948216	0.14948578643121196
-0.26896124996688786	1.5607013476794307	0.05996396589227542
0.354722284090018	1.5551134797214947	-0.2643730232847954
0.08891437608479551	1.5488335981180639	-0.02741577933999673
-0.04258340438161357	1.5518655815976337	0.01983641445916067
0.04990513541328098	1.5885779854473001	-0.456177871856668
0.361128964529749	1.571234248618275	-0.4521138983521907
-0.435176217955773	1.5426916837018376	0.3686620459409237
-0.0691646326454753	1.5640760525459716	-0.10280860391827423
0.5148472537282341	1.5627973986987544	-0.45158266515170276
-0.23414302739503504	1.603633323395703	-0.45106482226191874
-0.12567356013167455	1.5921159705497956	-0.3872680169573974
-0.44371203784639524	1.6008604447215857	-0.2890722599661463
-0.25729520912310083	1.584689261474127	-0.2207238520442628
-0.2535346221213858	1.5421407570500025	0.2619316819194543
-0.5526789420366938	1.609333009012257	-0.31785312135065175
-0.5090950687020765	1.577244646471806	0.020794521479918414
-0.35196542294985217	1.5744276312213248	-0.04485514613848857
-0.45627207282149973	1.5541837694977247	0.2507928623392265
-0.200307296212134	1.5645812087791802	-0.02697494746406474
-0.5376710269150627	1.6194341056692076	-0.44232924652768824
0.12084351006748109	1.5625373121795483	-0.2034845647174919
-0.5058655712279253	1.5873507033090861	-0.09641007977468481
-0.006392035357566668	1.5718317479471426	-0.23026762347757176
0.23148157263712726	1.5559134811310111	-0.1968164822913539
-0.1482555368006273	1.5499515585413157	0.10739868054945047
-0.36934821327601564	1.5665173780264903	0.056125888998082143
0.004762985394827173	1.5822517802613711	-0.3559820647062837
-0.2976134942029209	1.55248896488061	0.17140027483549353
-0.14673331189414943	1.5846818645540703	-0.28942675462599793
-0.26577776516045015	1.5747785266222922	-0.10247741219572694
0.04512744823126972	1.559599293033827	-0.12288760885226567
0.2697717132672928	1.5671180218754341	-0.34835564814448355
-0.4161839557326834	1.614159187837689	-0.4577867664969164
0.4238257721363851	1.5593968784060857	-0.3561913999652932
0.1656078479969112	1.5511196983972761	-0.10118985032948866
-0.16207476548421415	1.5741703163514325	-0.16006452434199378
-0.3159368313134828	1.5385721608627958	0.34143301063959824
-0.4897450865198666	1.595307411894199	-0.19713528695411925
-0.11221219681082906	1.5603289635383109	0.4561483126579597
0.18856203789131412	1.5741252170039495	0.2889540233853113
0.4705565730779343	1.5697126943804849	-0.15342385045469964
0.3972912448587984	1.579137317433154	0.09781068091231229
-0.21755113022063435	1.5403150238917618	0.26473162194335137
0.46030376481251395	1.5569325805616916	-0.35040470101733
-0.02394358896307641	1.5487853074375721	0.15035313141448994
0.1802653185600474	1.5640144213784435	0.13335860614293177
0.27956106732922387	1.572802865455707	0.14787181210145844
0.1844968396330966	1.5817008670466053	0.4190163418050224
0.26447037644164145	1.556848871807816	-0.09502368259224359
0.30615566264487704	1.593553450001757	0.45465984860289105
-0.11636979954726881	1.5519875573202422	0.324258891448477
0.08142647447534564	1.5648012018385613	0.27590155373957465
0.5315417041598648	1.5680942094062476	-0.26003032477149407
0.40998053260217016	1.5965068392543522	0.36716122464875944
0.3885108704079292	1.5869748132143193	0.23836638429131607
0.35424939178252757	1.5586178734914	-0.18360746873885042
0.497012856443374	1.5800772862199683	-0.01745890248868117
0.1338646106077385	1.5549459633930651	0.044883735874997846
0.5623650811818816	1.5596609299840591	-0.43929637122796733
-0.23470819964892492	1.548355163761506	0.4196066173849619
0.2939831109321436	1.5673303077714869	0.03885774715598046
-0.36170661682918853	1.540541719520556	0.4574679640228001
0.025764199354852562	1.54718037304735	0.058755612419123866
0.015365475837451622	1.5687517522179244	0.4275602989920248
0.392155650684229	1.5705523203658007	-0.036807186443809314
-0.11218334160661428	1.5459105517936935	0.21871263459935672
-0.022564858050502363	1.556330031695363	0.27276866511352954
0.1452332228414772	1.5496543636679796	-0.057147485712153105
0.2979437096377671	1.584625523921989	0.3184291334328854
-0.06444213689835024	1.492350909652226	0.46945092862560756
0.08107590306893583	1.1122054877682708	0.504459415721323
0.3343732173910028	0.8235601401219895	0.5310875619122459
-0.20384695979218256	1.4511217655454092	0.4731977026267986
0.4083312651363435	1.0693330103771106	0.5085080247222299
0.4650500758413325	0.663732242876553	0.5458289316707664
0.33217561067747	0.9805010769704912	0.5166531923754514
0.4368646698472741	1.2427547425193415	0.49256786128616076
0.30314893416625394	1.4761602904854907	0.47105866651453493
0.40134162557961395	1.497172504168982	0.4691579093507654
0.13641579805609744	0.9823754027478031	0.516417595805811
0.04209328960416283	1.5510435467584933	0.4640874446227447
-0.3027674920945642	1.4871650817133961	0.46985089968684013
0.20683071318571142	1.2448143237256954	0.4923041587756124
-0.4058182539275838	1.5167016836448493	0.4671011772568123
0.1963294149803115	1.3719015445893008	0.4806127162828024
0.1856023093371113	1.5680187077527603	0.462572604211355
0.24369528913235974	1.1335910229309525	0.5025451301220155
-0.04475763241898678	1.162819802499995	0.4997638453543907
0.1146448588052248	1.4752992099182871	0.4710769849264797
-0.13325965915628674	1.2200587309739022	0.49447107317890565
0.035744066593180586	1.322672291230813	0.4850884103547133
-0.10292554520883297	1.3801466017715205	0.4797577896470388
0.2969778365311936	1.3746316001107899	0.480394139162884
0.23457628522047677	0.8950538637677296	0.5244801467270088
0.3239746646340982	1.5781110039714146	0.46168911338968804
0.3969967436108656	1.3955937834007464	0.4784985729755354
-0.24512952323345732	1.3496874542361	0.48251315672033257
0.4612746594223669	0.7840690142335212	0.5347604915035259
0.06842161395277875	1.2276166074905255	0.4938411142413484
0.43131019816163507	0.8867035543087624	0.5253116459099283
0.33694552400677547	1.2544836176639662	0.4914569043107432
0.2413111068983549	1.0265462281925317	0.5123891348436471
-0.21653389990686436	0.9931230140339967	0.4871073825451483
0.27813328438089197	0.7470885918156138	0.534712956764414
0.28650391822466176	0.5968691822817935	0.5354924615983475
-0.012018765474954268	1.0082725792652967	0.5068102810508935
0.1277956855951126	0.6608746808766504	0.5202161001995621
0.021572070119948814	0.5594273485167195	0.5099658638046182
-0.31281817647525234	0.7841205272814918	0.477795372342702
-0.39203573372859646	0.596853142988382	0.4701312155785911
-0.0943500850920169	1.1236422562551083	0.49890019466085583
-0.29565771898375814	0.9180263128414469	0.4794722728851945
-0.2563146216544145	1.2034187882580343	0.4833129798649713
-0.13675712887764888	0.583141117430774	0.4947188229864774
-0.4288991504608726	0.7717177378402285	0.46661150327803363
-0.14415707292581217	0.7752537252033636	0.4940402972868906
-0.25627878574959334	0.6866563929862927	0.48322421191755827
-0.3810185903872502	1.3667931733496135	0.471329857926631
-0.24522948573848172	1.3043637001325716	0.48439878479834075
-0.29837653674554104	1.0991716081502765	0.4792427057670821
-0.35968716833640224	0.9989765139664084	0.4733189963273175
0.38071558651273946	0.66156929386081	0.5445790732497804
0.02080608501980115	0.7490693736816074	0.5099259222163031
-0.11196261998429818	0.9201288059590998	0.49716732517762735
0.1959469216759398	0.868480937551003	0.5268179083312481
0.03294141302076208	0.8726309430571785	0.5111169244143461
-0.4192499481470402	0.8963082099657859	0.4675632096956904
0.1863217677960847	0.5766941319781524	0.5258386810479966
0.14446793912061628	0.7733986158729821	0.521842158097613
-0.4286043683562798	1.1657266197574216	0.4667102122201482
-0.04819124480383529	0.6697405946899136	0.5032655049880255
-0.2820387988627597	0.5836064897373907	0.48072445408133885
0.09089307700755146	0.970264483284441	0.5167166196616839
-0.4310891303358672	1.454572198856991	0.4665224107137506
-0.11204902870007154	1.0247458207534037	0.4971776713851684
-0.202808907363081	0.8693784288231456	0.4884073777898754
-0.3657606290809795	1.252630964235664	0.4727792284884701
-0.19258243370844227	1.1046053264701898	0.4894344344939917
-0.5107636260414885	-0.1559415313309411	0.7291253141715821
-0.4744185364796455	-0.033340773279000605	0.9316496510872047
-0.5263473663326316	-0.5425426652985487	1.203293753943806
-0.4843455395817473	0.14041117768959255	0.5282798481076749
-0.5398174989071428	-0.315609237789703	0.6707901001685367
-0.5041309480365529	0.009597024565072328	0.525640544557121
-0.49265453855446945	0.02242090349598977	0.6330700592232755
-0.5156595602399662	-0.5801938723469825	1.3866335760179918
-0.563966251738971	-0.4091452263226059	0.5565091369714327
-0.5617993796769003	-0.5128612493973582	0.7550493496127973
-0.521512153241967	-0.29314158981440863	0.838763734625582
-0.548391236726733	-0.2808594990642229	0.5160802698480927
-0.5434365916462932	-0.5201800623011227	0.9736945005897232
-0.4437473194796218	0.44269640470941557	0.47682117017126524
-0.4800358797587936	-0.21478507036803082	1.1732578268608767
-0.46529914473322015	0.18276001762831853	0.6711908586017782
-0.46964810467271983	-0.09290268807682943	1.0852912790243614
-0.4985129508926851	-0.3525802308012318	1.197045586073199
-0.539041741995761	-0.3911138532640152	0.8063168252427908
-0.5229605754732243	-0.15700798980577177	0.5938522279792404
-0.4394679303170494	0.3987581771846902	0.5987048721314762
-0.48940140907692414	-0.38601223221245123	1.355585907626432
-0.49317148362924423	-0.14547603823205418	0.9092417452772185
-0.46316646143549645	0.08250382765518241	0.8635361241337879
-0.5174870060828861	-0.4411412615577512	1.1325603178027186
-0.4517281262235497	0.21526188393814422	0.7691097654884225
-0.5285435657601995	-0.38511620032781557	0.9142179304989194
-0.5531294898324618	-0.5209960710720548	0.8661402623788027
-0.45321230129223095	0.2984920215060375	0.6126472133787065
-0.48341967303656314	0.006681435811286081	0.7632818427605323
-0.5032640512424267	-0.594677511680275	1.5502541936809988
-0.4681914043197319	0.11407298410820724	0.7540479091979566
-0.510334623617687	-0.32924508631892285	1.0250075026061556
-0.48074404550849437	-0.2734077641644271	1.2637558681405325
-0.47137850922638985	0.2406791925520967	0.5055989572741697
-0.5069280181905544	-0.4681232046472567	1.2965336343934122
-0.5091799272751747	-0.2706321492633873	0.9395437707463569
-0.49570466334007185	-0.48248839283943257	1.4467831392295334
-0.4935841365253103	-0.23138742107175897	1.0488916613393848
-0.5808269593779198	-0.5067560723302355	0.5309718361210857
-0.5353910078120071	-0.5366673637632517	1.0917976143623922
-0.5620692464827801	-0.45733943530919924	0.6587684798501023
-0.5208971848944868	-0.090728003078341	0.5057233020953249
-0.45571305379140975	0.3420303795906441	0.5114226584664068
-0.49397317294839954	-0.09265530690567594	0.8115209137396562
-0.48228811010512634	0.006480322433591611	1.1973688062879229
-0.5022243180666136	-0.008997511613591675	1.3871482452937705
-0.4551346959282636	0.1771397548192132	0.8663500815482877
-0.4930078584040149	-0.3798005839822396	1.4827001834597144
-0.5046108739977209	0.16615035875547696	1.324032252446684
-0.5361564160029256	0.5651646917325923	1.418950917969051
-0.5134360474440258	0.3705207006830869	1.3056124427320321
-0.46925094322611466	-0.03951129905987621	1.1004751160117343
-0.43922760737452443	0.5087139582972788	0.5601210330272973
-0.5178132594981607	0.14785869581620617	1.4536099344487523
-0.5060656581879649	-0.12821545240770624	1.4800823597399593
-0.49325779283561283	-0.5104904225083203	1.5483617969209307
-0.4704608794835321	0.4719637982280423	0.863503535119996
-0.470639260147164	-0.13993618605499336	1.1618681506246762
-0.49898356150011586	0.2748572143006424	1.2198664979588996
-0.46656682171078007	0.25994180838603154	0.9307183444021253
-0.48978761571718143	-0.26095107094648023	1.3956233308622552
-0.5110568917543055	0.5249668622566046	1.2089633410628786
-0.454643708349206	0.46715209425117954	0.7212229815748586
-0.49326260565184676	0.34334334406496103	1.1343491453573438
-0.48405083889866973	0.13080873622434847	1.153193557503926
-0.48731073272404135	0.4284967553185832	1.0386379514990338
-0.5227552667193953	0.5167993043062805	1.3198805231448885
-0.4557061696874572	0.37298553864120837	0.7766018650484434
-0.478164958799523	-0.2278528608017777	1.2733086001979712
-0.4829685885161281	0.5071074859157588	0.9608170528051266
-0.4627285280390928	0.0634370303672653	0.990918106597633
-0.5056179243234888	-0.37495578099579785	1.5956426224133313
-0.5168094212406418	-0.00809219722299121	1.5200585510557845
-0.5057133865596899	-0.22774765696105523	1.5251285684024922
-0.47845410968548713	0.2870692849287783	1.0262468163794587
-0.47351245550746723	0.3875427230135817	0.9323426282194022
-0.4898771347359921	-0.08682272159030491	1.3120002919252107
-0.4985992415876084	0.5698397560408702	1.0733044026317764
-0.5308631564370023	0.3248891237103066	1.4870742839394153
-0.45130808874879136	0.2711192363916235	0.7857897623977604
-0.512747526300769	0.27152707465309883	1.3473231971071982
-0.5345416364266984	0.4654146236104271	1.452559863421081
-0.4734463026626897	0.16176322483700306	1.0412269182781593
-0.44128416880060883	0.36110671921213316	0.6505042504555733
-0.5175330807466972	-0.5564779379877826	0.9684425525306649
0.07386835102283988	-0.6027038980817332	0.857699252893465
-0.1515203748752061	-0.5677547512440504	0.6289359720144827
-0.33971905397084423	-0.5694331853818838	0.9203982075923596
-0.05818537672073252	-0.5974659166076344	0.9619071086022007
0.29205003024747345	-0.6124608505471918	0.7027640527533447
-0.49278430977796445	-0.5718322225632484	1.1736141016683115
-0.2942640480212288	-0.5961444826539277	1.273944902139401
-0.2271293437264417	-0.5560305309902605	0.5521923304246474
-0.5171912392799439	-0.5471810674982461	0.822613407671392
-0.19419653519967045	-0.5909093198401639	1.0510767784414858
-0.16214674607469554	-0.584400813766177	0.9041561001622052
-0.3518201272732015	-0.5814792898087086	1.1257807723107158
-0.053931843706915124	-0.6066221067467944	1.0990607603414764
0.2718884719022568	-0.6017943081004776	0.5644161356211134
0.0889942277139611	-0.5905720916672241	0.6467140764099925
-0.05267046511578243	-0.5808602564063684	0.6945220255279939
-0.0024930525637933687	-0.5765462572140776	0.5563636954864576
-0.35873952416452964	-0.5476623579429873	0.6068376532387306
-0.49049960676573806	-0.5865129834606693	1.3999135687388657
0.17852436364800628	-0.610274246953609	0.8285662672335704
-0.45630034157065125	-0.5404544191785	0.6316375621493726
-0.24983021816026227	-0.5729459094444552	0.8486391070513883
-0.3763759462538095	-0.5540365152147217	0.7313456850523318
0.07732364145048454	-0.6096450095456553	0.9613472687303759
-0.38608282342281686	-0.5908373670605933	1.3203702548820342
-0.4976898664192326	-0.5981339363260305	1.5917286765614749
-0.39324954094542897	-0.5985850962721414	1.4515981541845193
0.109917362912743	-0.598930875951593	0.7479092083048378
0.41678931262182917	-0.6166747337095166	0.5928534126640833
-0.17134097176413562	-0.6043635315737831	1.2292105915644558
-0.245044731241086	-0.5922072563951458	1.14302725490655
-0.4100123099643983	-0.5685958546710309	1.0063691042999219
-0.5684800208764145	-0.5318389842517357	0.6550344887731901
-0.4902847757287835	-0.578834088529939	1.2795588670337927
-0.17452606911642823	-0.5728255113376634	0.7406333950876066
-0.5193850201964217	-0.5631612621930405	1.075539605446314
-0.27311655456348827	-0.5622799702517066	0.7147042575960063
-0.533881541306112	-0.5275974833074023	0.5399644226056958
0.1299690058492878	-0.5882574190423446	0.5527821841486424
-0.09390907386360273	-0.5849879330103933	0.8171702536496844
0.18698543331730827	-0.6007662067693907	0.6679935586269448
-0.29628124447796234	-0.5797365897549932	1.0202664425052563
-0.42463322639952406	-0.55826889268896	0.8655219670742363
0.28226948130392	-0.5478050367854593	1.3706366690433958
0.04025930758849784	-0.57447610599196	1.3643225480771215
-0.14628625591195651	-0.5715464303479555	1.5559826238692949
0.36624041645007765	-0.5291271993833712	1.4516761922201897
0.37952569035728123	-0.5465034349259258	1.2943843956696326
0.3353583271603738	-0.5658377134509341	1.17218786079833
0.15938342084269144	-0.6073897050666269	0.9821956846112104
0.09427138720811945	-0.6047367609069706	1.0627342758572482
0.37933138655000087	-0.5830651950465188	0.9886440341842678
-0.31697502270617045	-0.6038412804961749	1.43870905952647
0.05372619964596658	-0.5585909197431725	1.4851683489348615
0.3241771827083884	-0.608739477373347	0.823244658825744
0.4430567081234059	-0.5506037093013699	1.203152516105608
-0.26584654899398963	-0.5816862778716299	1.5782695162283875
-0.137100007996115	-0.599557881281941	1.3133781180376032
0.2674910302601294	-0.5928037369662222	1.007371508934928
0.08891820735980473	-0.5903426656387097	1.1879670625828942
0.2278596205900269	-0.5675076871900276	1.254535358156829
0.1632795271465285	-0.5633292493220609	1.3473612221338223
-0.025228974322582243	-0.5908172558276067	1.2862735284669145
-0.3648817786257898	-0.589684672147154	1.600083348116865
0.16413192057598291	-0.5464131326457129	1.4881356385868416
0.4661698672551055	-0.6108916680581111	0.6780098179836664
0.2634479628909653	-0.6051492647270393	0.9076983728528945
-0.07227401839224948	-0.5730047797784318	1.4774645781590823
-0.1894400212438706	-0.5876909712606716	1.459566619549789
0.42597546723514573	-0.5902089011018926	0.8870784974056992
-0.09979699785753081	-0.6072196034163378	1.2158480326308672
0.4615376078491511	-0.5659268015571328	1.0583841439930841
0.17988989320411852	-0.5890087876235384	1.1176158620145
0.3803374281115568	-0.6133820667274161	0.7340795069304393
0.0032094746254417205	-0.6083985155201429	1.1136888363627735
0.48154501525512217	-0.5339822712483148	1.3077390601756027
0.48531926637774375	-0.5949294275409772	0.7944087347720968
-0.46890987116069494	-0.5993734494821341	1.6122273140848986
0.4807664664162396	-0.3019131435867802	1.2779614043539114
0.47993396651214776	-0.3254372585987569	1.4622590172440495
0.4794216141446412	-0.16483663376397	0.9994619010918078
0.48377143839792563	-0.3567173902713688	1.0725621685777091
0.46121519649594	0.3753542786645075	1.5588770813071557
0.47777535119935927	-0.19632367357865427	1.314436441392971
0.4862325588430897	-0.4610215760385427	1.0998965998779702
0.47572183321598327	-0.09941045940535459	1.2591001652755172
0.471773276808249	-0.01036753466195621	1.4729478055764855
0.48861206914430216	-0.4455896421875707	0.7436301686978063
0.46386257178405293	0.2893818506188883	1.50196667452312
0.4885604437344097	-0.49043243915915635	0.8978452000796556
0.4844806683090514	-0.4420063480429573	1.262217361448537
0.4726830094219849	0.021391650576744005	1.2516317986479357
0.47469906755077357	-0.02545726979763008	1.1470045333129957
0.46785218804821804	0.17066667817121187	1.3805057236727942
0.4828563722646585	-0.4325975309534837	1.4397746122042487
0.47981386498128503	-0.23255952618291198	1.1719964350738772
0.4886196172992593	-0.5280964689344066	1.0142091952036598
0.4856460912572084	-0.37324292071485143	0.8862872963371009
0.47395353698304393	-0.10598847872259082	1.507760040169781
0.49342111721243104	-0.5959745678452835	0.621204372802547
0.4912239250490057	-0.5750316596118217	0.8343476082618814
0.4683845536912029	0.10842166683291335	1.5170237050931927
0.4871135618570151	-0.520176157877688	1.181485964207153
0.4778649263422072	-0.23157632013532334	1.4189611550444776
0.48282818924299675	-0.35513666955735673	1.1884520241960084
0.47105188607770976	0.04828302668410061	1.3725265919851672
0.48239127513422253	-0.25247993518875433	0.9066763403353739
0.49168192749914236	-0.5571652302609185	0.7167478783135176
0.48557084464510725	-0.5078490718617575	1.338965632675531
0.4740466896252705	-0.07220882177550628	1.384625047142319
0.48627833226813116	-0.42757406616417043	0.9839372204487746
0.46986012267595983	0.11842910655672449	1.294656568218026
0.4863884878439207	-0.228292368856431	0.6600927280457118
0.4767821170346265	0.316207292405968	0.7024008529841157
0.46115326267730455	0.47684272004474704	1.4270223333782068
0.459225529122376	0.4667438479084624	1.5434488660067918
0.4927395478069292	-0.5334680910584751	0.5825598797959464
0.47996971693863594	0.025165343085351163	0.7881605824319573
0.47388980844943385	0.03466936145626639	1.1179644986977446
0.47465807019954814	0.2748915189237866	0.8579819405348504
0.47335739369036095	0.16655442572537563	1.0283399861041793
0.47010007381755914	0.4215833084341135	0.9790257917732982
0.4725840351921385	0.259447547921668	0.987384715972246
0.47755258845665677	-0.07779748794270622	1.0157988501053516
0.4889515298817225	-0.42289922796925244	0.6934123361911446
0.476940031568373	0.4382122536866787	0.5832878589097863
0.4795384067822915	0.27552456898723865	0.5857777725863947
0.4726101898885999	0.3769192130919279	0.8797045241142466
0.4826008663258485	0.03423516726480221	0.6335135724543017
0.4798000235433341	0.10525499619089361	0.7251838924868769
0.4856064566840121	-0.29934272481603974	0.7678670454668428
0.4673555748039956	0.3026453573387914	1.2393305785214137
0.4633035618268598	0.3432282501576957	1.4281618139195706
0.4809623149555312	-0.07402997522980947	0.8226121305394367
0.475880657398415	0.152921369143412	0.9002269376319996
0.46420879471707216	0.39688474194658707	1.3292587920512853
0.4666571361495249	0.39718073816412336	1.1927203674208937
0.4857193536632765	-0.08523493097300255	0.5679751134163603
0.4658413752350699	0.5080138419195135	1.1379028111956127
0.48023505285608165	-0.17326470872330177	0.9528239833976297
0.48291291533902664	-0.0803142147799725	0.7197273945757167
0.47098788641596057	0.1414193556131471	1.1829515102928765
0.4784099057318158	-0.019502640892541796	0.9153684739534415
0.48196904071414903	0.14592700927351843	0.5676819522069384
0.46916113272540105	0.31917533026030903	1.1238887844897711
0.4773928531851408	0.1885474642612121	0.7838454268922338
0.46843259662851344	0.5237254506388551	0.9794722556741539
0.4835858957154375	-0.17364919042540064	0.766669099075419
0.47174931143803855	0.5117138677412264	0.8057307605570123
0.4734483737495651	0.559018879286945	0.668387827147647
0.48291853804655616	-0.23453874816622092	0.8588729101883311
0.48992831445960755	-0.33688924264971154	0.5612710197415726
0.4792022278706033	0.20331434158499273	0.6697854877289342
0.4741984327213939	0.4479862506669074	0.7270426699809286
0.4759469014571216	0.030288943234248106	1.0074310116518366
0.468772362961487	0.16901425870998596	1.2813111443463616
0.46301155685816114	0.5020923374728811	1.3007605322409281
0.4754016566522219	0.5581635403621071	0.5604446702525131
0.4660199873283093	0.270173772948396	1.343029867742829
0.07208569168655042	0.5802400913175976	0.834663756935707
-0.3865514669297744	0.5599216592662711	0.7981544597383098
0.18886558708088594	0.5691791652714429	0.5837335311995329
-0.39672409441240536	0.5753774412076774	1.0523129119816432
0.41189092089972273	0.5773942035958075	0.5747925064067825
-0.479911668814955	0.5814188236351162	1.2016030620078735
-0.3524348410129448	0.5879503336760044	1.2259215615944188
-0.19919957853577078	0.5826404270669604	1.044189975447744
-0.23673100938541852	0.561610702054006	0.7307638025490799
-0.1507498659686903	0.5752382833673035	0.8949907595174162
0.039675853832753925	0.564550194138265	0.6036016923681933
-0.2838670872700828	0.5850850500027147	1.1367599380044502
-0.18622660628753454	0.5497338251543582	0.5085424993048216
0.3257153748312294	0.5791774787471039	0.6577124147410693
-0.33619240135960193	0.5465688885832359	0.5523673414907759
0.006607072149757379	0.5831483815113914	0.9225669828011243
0.23878570991622095	0.5820209795718573	0.7581024197147608
-0.3343318919332559	0.5686169809491353	0.9046083804627795
-0.13975977144483545	0.5673774498977736	0.762058117237157
-0.14461114051521815	0.5575689031597055	0.607893467238292
-0.4391473584820938	0.5446249482234475	0.5861225708150324
-0.01713618631895811	0.5682586579209243	0.6988666436891662
-0.47337234878479634	0.5634206592409363	0.908983026944053
-0.5269468441629753	0.5942842994764216	1.43748343737026
0.09765419895285318	0.574930633871292	0.7334357547666579
0.3022390963467119	0.5715273313645701	0.5498886317373156
-0.06510840311478121	0.5542064467927509	0.5038678231606928
-0.2598581682691572	0.5538529585191684	0.620995208448832
-0.5224025222892986	0.5881171653809399	1.3357636915902205
-0.07944399124459975	0.5832588040225163	0.978593848771499
-0.4303205351454742	0.5520224957034304	0.6991341375622939
-0.24090426762485465	0.574823128864137	0.9451802612507785
-0.41408928142364515	0.5925000757293005	1.3377247907911933
0.3641621030645384	0.5194668929904057	1.2414577885999114
0.15569649648314424	0.5407979629026591	1.255076198268358
0.27453783358597755	0.579862306382274	0.7525595985542731
0.32144728682444773	0.5345226360811983	1.1410474016726766
-0.12858827631349026	0.5474941979617715	1.4899298791079867
0.19653830393007712	0.5244755369933403	1.3696942741767157
-0.20516908034153727	0.5692543527780481	1.3604470134530242
0.39469926156378643	0.5727647537276064	0.6945062973553344
-0.28195909273356845	0.5910040264024518	1.231285807183108
0.4570688316958238	0.5784528882868004	0.5738534489931804
-0.0017615815332161896	0.5440155512456203	1.3899007302368227
-0.14857485327907863	0.5735386670890104	1.2594379866302385
0.1396115781458353	0.5534419205263409	1.1499021218246672
-0.4174861410153644	0.591190016430467	1.3722839445764963
0.08092053298654767	0.5734075188989758	1.018902885037993
0.047965793500024397	0.5568052180889074	1.2139779259498416
0.41321407564628737	0.5294559231608246	1.0932965235952241
0.17598539337402294	0.5122990081238094	1.5089561825696907
0.4567680754708054	0.4919893023238007	1.4092779485772975
